# .PCD v0.7 - Point Cloud Data file format
VERSION 0.7
FIELDS x y z rgb
SIZE 4 4 4 4
TYPE F F F U
COUNT 1 1 1 1
WIDTH 1162
HEIGHT 1
VIEWPOINT 0 0 0 1 0 0 0
POINTS 1162
DATA ascii
0.0032500001 0.027249999 0.69000006 12882285
0.011000001 0.0275 0.69000006 13079408
0.20700002 0.024 0.69200003 7566454
0.214 0.025 0.69700003 8288892
0.22400001 0.025 0.69425005 9143170
0.23 0.024 0.69000006 9669256
0.24850002 0.022000002 0.69400001 6969679
-0.22087501 0.034500003 0.69499999 8607548
-0.112 0.038000003 0.69900006 14133899
-0.10525001 0.037250001 0.69900006 13936773
-0.096250013 0.033749998 0.69856256 13673086
-0.084624991 0.033749998 0.69756258 13212535
-0.075000003 0.033750001 0.69708329 13212534
-0.065230772 0.034615383 0.69600004 12948851
-0.055000003 0.035000004 0.69500011 12158057
-0.045250002 0.035 0.69375014 11633507
-0.035666671 0.034666669 0.69277775 11370337
-0.025916668 0.034666669 0.69216663 11238752
-0.015000001 0.034666669 0.69174999 11765097
-0.0053333333 0.034666669 0.69077784 12094577
0.0037142858 0.033285718 0.69014293 13738626
0.011000001 0.032000002 0.69000006 14002053
-0.22100002 0.041000001 0.69000006 7622453
-0.21575001 0.043000001 0.69274998 8017989
-0.20575002 0.044000003 0.69475007 10322292
-0.19500001 0.044000003 0.69499999 11637376
-0.186 0.044000003 0.69466668 12425602
-0.17680001 0.043400001 0.69620007 12622461
-0.16450001 0.044000003 0.69600004 13017219
-0.154 0.044000003 0.69600004 13083268
-0.14425001 0.043250002 0.69600004 13214339
-0.13528572 0.04271429 0.69628572 13148804
-0.12550001 0.042500004 0.6965 13214082
-0.1155 0.042125005 0.69550002 13280133
-0.10550001 0.041999999 0.69466668 13083267
-0.0955 0.042000007 0.69375002 13214339
-0.084125005 0.042000007 0.69250011 13017218
-0.074666671 0.040000003 0.6936667 13279364
-0.066000007 0.040000003 0.69300002 13148035
-0.056250002 0.040000003 0.69225001 12950657
-0.045250006 0.040000003 0.69050002 12884609
-0.038000003 0.040000003 0.69000006 12950403
-0.029000001 -0.24300002 0.70600003 4670799
0.029000001 -0.24300002 0.708 11579324
0.035 -0.24300002 0.70700002 11644858
0.044 -0.24300002 0.70700002 11513528
0.054500002 -0.24300002 0.70600003 9075319
0.064500004 -0.24216668 0.70716667 11904668
0.0726 -0.24240001 0.70840007 12231834
0.087000005 -0.24300002 0.70900005 12560796
0.093250006 -0.24225001 0.70725 11311766
0.088000007 -0.23700002 0.70900005 12623238
0.094499998 -0.2349 0.70800006 10915460
0.1 -0.23650001 0.70600003 10658477
0.096000008 -0.228 0.70900005 9404024
0.1008 -0.22420001 0.70780003 10724270
0.10200001 -0.21700001 0.70900005 10855858
0.093666673 -0.11266667 0.70433336 12689552
0.1 -0.11800001 0.70900005 7169642
-0.096000001 -0.10600001 0.70600003 13346448
-0.08625 -0.10325001 0.70650005 13280907
-0.076000005 -0.10266668 0.70466667 13543310
-0.067000002 -0.10200001 0.70033336 13411725
-0.021000002 -0.10600001 0.70850003 13279881
-0.014000001 -0.10533334 0.70600003 13017225
-0.0053333337 -0.105 0.70433336 13083275
0.0044999998 -0.105 0.70225 13279884
0.014000001 -0.105 0.70066667 13279884
0.020000001 -0.105 0.70000005 13017225
0.049000002 -0.109 0.70900005 12688517
0.054000001 -0.109 0.70733333 13148813
0.063750006 -0.108 0.70350003 13214608
0.072000004 -0.108 0.70100003 13083021
-0.20480001 -0.074200012 0.70340002 6632995
-0.2 -0.073000006 0.70100003 13277062
-0.21300001 -0.063666672 0.7050001 7159593
-0.20585714 -0.068142854 0.70500004 9394761
-0.19766669 -0.064000003 0.70233339 13345661
-0.21499999 -0.056000005 0.70666671 7290150
-0.19750001 -0.055000003 0.70525002 12885370
-0.22000001 -0.042000003 0.708 7748898
-0.21800001 -0.047000002 0.704 7618341
-0.19475 -0.045500003 0.70250005 12751982
-0.22000001 -0.037500001 0.70700002 9269866
-0.21700001 -0.033 0.70250005 12501963
-0.19750002 -0.036499999 0.704 13016443
-0.19225001 -0.0040000002 0.70175004 12029544
-0.18700001 -0.001 0.70000005 13014382
-0.16100001 -0.001 0.70000005 13278065
-0.15575001 -0.0017500002 0.70000005 13277810
-0.14414287 -0.0022857145 0.70000011 13343605
-0.13700001 -0.0020000001 0.70000005 13409398
-0.19199999 0.0050000004 0.70433336 12555117
-0.18660001 0.0052000005 0.70039999 12817773
-0.17540002 0.0061999997 0.70000005 12949103
-0.16550002 0.004666667 0.70041662 13015408
-0.155 0.004666667 0.7005555 13212531
-0.14491667 0.004666667 0.70025009 13344118
-0.13500001 0.0046666665 0.7003333 13344374
-0.1275 0.0060000001 0.70000005 13344631
-0.20200001 0.019000001 0.70700002 7302258
-0.19375001 0.014875001 0.70337504 11111546
-0.18542857 0.016428573 0.70071423 12685930
-0.176 0.0145 0.70108342 12817773
-0.16575001 0.014500002 0.70206255 13146481
-0.15492307 0.014846155 0.70161545 13409396
-0.14500001 0.0142 0.70120013 13475703
-0.13500001 0.0145 0.70116681 13475960
-0.126 0.014500001 0.70041674 13410167
-0.11800001 0.016375002 0.70000005 13410167
0.20700002 0.016000001 0.70500004 7829116
0.24900001 0.019000001 0.70900005 7828084
0.252 0.017000001 0.70433336 8747897
-0.21600001 0.027000001 0.70366669 10519153
-0.208 0.022000002 0.708 7564916
-0.19000001 0.025 0.708 12489833
-0.18457143 0.024428573 0.70357144 12751467
-0.17509091 0.024909092 0.70218188 13014638
-0.1655 0.0244 0.70290005 13277809
-0.15449999 0.024333335 0.7026667 13475700
-0.14399999 0.024333334 0.70244449 13542008
-0.13500001 0.024333334 0.70211118 13541752
-0.12483335 0.024000002 0.70116681 13541752
-0.11500001 0.023999998 0.70044452 13410167
-0.10522223 0.024999999 0.70000005 13475704
0.21100001 0.022000002 0.70700002 7434359
0.24300002 0.022000002 0.70450002 8485758
-0.21762501 0.035 0.70450002 8409138
-0.19000001 0.037500001 0.70800006 12028518
-0.18400002 0.034499999 0.704 12817518
-0.17513336 0.034200002 0.70233333 13080689
-0.16523077 0.034846153 0.70284617 13607289
-0.15450002 0.034499999 0.70300001 13673339
-0.14400001 0.034416672 0.70258337 13739389
-0.13499999 0.034250002 0.70191675 13804926
-0.12518752 0.034249999 0.70137507 13804927
-0.11527274 0.033636365 0.70072728 13673341
-0.106375 0.032375 0.70000005 13475704
-0.21350002 0.041500002 0.70450002 7950911
-0.208 0.042000003 0.708 10254697
-0.19400001 0.042000003 0.70650005 10847088
-0.185 0.042000007 0.70100003 10976867
-0.17450002 0.041500002 0.70000005 12358770
-0.16550002 0.041000001 0.70025003 12819323
-0.15500002 0.041000001 0.70000005 13017474
-0.14666666 0.041000001 0.70000005 13017475
-0.071000002 -0.24400002 0.71700001 11051422
-0.064500004 -0.24200001 0.71250004 9011327
-0.056000005 -0.24266668 0.71400005 9405828
-0.045500003 -0.24300002 0.7155 11970212
-0.035 -0.24300002 0.71633339 12165527
-0.023 -0.24314287 0.71757144 11177605
-0.014833334 -0.24233335 0.71866673 12952986
-0.0067499997 -0.24325001 0.71850008 12953757
0.0044999998 -0.24350002 0.71750003 13019033
0.015600001 -0.24420002 0.71600008 12496554
0.024000002 -0.24350001 0.713 12365741
0.033750001 -0.24100001 0.71025002 13085336
0.044 -0.24100001 0.71000004 12953752
0.054500002 -0.24100001 0.71000004 13019546
0.077000007 -0.245 0.71000004 10850958
0.082200006 -0.24380001 0.71020001 12363679
-0.0045000003 -0.23733334 0.71866673 13545636
0.0047999993 -0.23593332 0.7184 13215893
0.015000001 -0.23541667 0.71691674 13215636
0.023727274 -0.23536363 0.71563637 13084050
0.033833336 -0.23591669 0.71316671 12952462
0.044000003 -0.236 0.71277785 13018253
0.05450001 -0.23591669 0.71250004 12952462
0.065000005 -0.2357778 0.71144438 12820875
0.074916668 -0.23583336 0.7105 12820874
0.084142856 -0.23557143 0.71014291 12491909
0.0090000005 -0.22800002 0.71900004 13149070
0.015600001 -0.22680001 0.71859998 13017484
0.024299998 -0.22540002 0.71759999 12885898
0.034000002 -0.2255625 0.71612501 12820105
0.044000003 -0.22549999 0.7153334 12820104
0.054500006 -0.22549999 0.71518749 12622980
0.065000005 -0.2255 0.71408343 12557188
0.075125001 -0.22549999 0.71312505 11373432
0.085000001 -0.22549999 0.7118333 8480862
0.093333334 -0.22422224 0.71077776 11572100
0.1 -0.22000001 0.71000004 10657444
0.025500001 -0.21725 0.71875 12885385
0.034363635 -0.21590909 0.71836364 12819335
0.044 -0.21533336 0.71777779 12884871
0.05450001 -0.21541667 0.71733338 12687492
0.064999998 -0.21500002 0.71633339 12687492
0.075083338 -0.21499999 0.71516675 12293505
0.085000001 -0.21500002 0.71388894 10189418
0.094000004 -0.215 0.71255559 11111290
0.101 -0.21420002 0.71140003 10526888
0.038000003 -0.21000001 0.71900004 13016459
0.044750001 -0.20925 0.71900004 12753287
0.05566667 -0.20744446 0.71866667 12687493
0.065000005 -0.20541666 0.71849996 12555907
0.075125001 -0.20487501 0.71731257 11964540
0.085272722 -0.20518184 0.71609092 10320749
0.094000012 -0.20600002 0.71455562 10848374
0.1015 -0.20600002 0.71333337 9408153
0.075125001 -0.19575 0.71899998 11766391
0.084272735 -0.19563636 0.71836358 9728356
0.093999989 -0.19625002 0.71725005 10847348
0.10150001 -0.195875 0.71600002 6844024
0.094750002 -0.18825001 0.71875006 10255472
0.1015 -0.186 0.71833342 6381152
0.10300001 -0.18000001 0.71900004 6251370
0.104 -0.12200001 0.71100003 6580334
-0.1 -0.11000001 0.71000004 4668224
0.0075000003 -0.11000001 0.71900004 13148554
0.014666666 -0.11000001 0.71800011 13279626
0.024500001 -0.11000001 0.71625006 13214602
0.034500003 -0.11000001 0.71350002 13214602
0.068000004 -0.11400001 0.71900004 13017740
0.075000003 -0.11300001 0.71700001 12951948
0.084750004 -0.11275 0.7125001 12951952
0.094000004 -0.11650001 0.71650004 12425606
-0.095000006 -0.108 0.71600002 13412498
-0.063000001 -0.108 0.71900004 13346190
-0.055500001 -0.10725001 0.71724999 13345421
-0.044500001 -0.10700001 0.71525007 13345675
-0.034000002 -0.10633334 0.71200007 13214088
-0.026500002 -0.10600001 0.7105 13148295
0.034000002 -0.109 0.71300006 13279881
0.043000001 -0.109 0.71100003 13345934
-0.21200001 -0.062000003 0.71000004 6830373
-0.20716667 -0.064166673 0.713 7356720
-0.21362501 -0.055374999 0.71550006 6895135
-0.20533334 -0.058666673 0.71633339 9855824
-0.21800001 -0.045600004 0.71420002 7617314
-0.20100001 -0.043500002 0.71450007 12292719
-0.2 -0.049000002 0.71200001 12490351
-0.21566667 -0.035 0.71450001 12565436
-0.20400001 -0.033 0.71500003 9863800
-0.19900002 0.013 0.71000004 6510937
0.21100001 0.014 0.71800005 7697272
0.252 0.017000001 0.71600002 9077894
-0.21600001 0.028000001 0.71400005 9262901
-0.193 0.025 0.71266669 12290661
0.21700001 0.022000002 0.71700001 8355207
0.22500001 0.022000002 0.71675003 8355460
0.23466666 0.022000002 0.71266669 8814980
0.24800001 0.020000001 0.71600002 7368565
-0.21550001 0.03475 0.71550012 8275495
-0.19275001 0.035250001 0.71275002 12357227
-0.21200001 0.040000003 0.71600008 6962729
-0.20450002 0.042000003 0.7105 10452590
-0.2 0.042000003 0.71000004 10782582
-0.084000014 -0.24333334 0.72833341 14334631
-0.075000003 -0.24233335 0.72583336 13940133
-0.065000005 -0.24266668 0.72266674 13808802
-0.056000005 -0.24200003 0.72133332 13873826
-0.045500003 -0.24150002 0.72049999 13742238
-0.035 -0.24200003 0.72100002 13610653
-0.0275 -0.24100001 0.72000003 14532013
-0.015000001 -0.24866669 0.72300005 11645630
-0.0075000003 -0.25 0.72650003 11909061
0.0045000003 -0.24800001 0.722 11645891
-0.081 -0.23900001 0.72900003 14070427
-0.0744 -0.23700002 0.72860003 13609876
-0.066 -0.23608337 0.727 13412498
-0.056076929 -0.23530768 0.72569239 13478293
-0.045200001 -0.23493333 0.72453332 13346963
-0.035500001 -0.23550001 0.72390002 13346704
-0.024833336 -0.23541667 0.72200012 13017997
-0.015000001 -0.23500003 0.72044444 12098186
-0.0072000003 -0.23380001 0.72000003 13611432
0 -0.23200001 0.72000003 11701629
-0.064500004 -0.22900002 0.72900003 13610129
-0.055500004 -0.22575001 0.72850007 10783096
-0.045000009 -0.22520001 0.72750008 7890527
-0.034909092 -0.22518182 0.72627276 7824734
-0.025125001 -0.2253125 0.72468746 10255728
-0.015000001 -0.22458337 0.72300005 5129803
-0.0059999996 -0.22441669 0.7215001 12102057
0.0036923077 -0.22423078 0.72076935 12622213
0.014250001 -0.22275002 0.72000003 12951434
-0.04266667 -0.2156667 0.72883338 11768453
-0.035000004 -0.21500002 0.7277779 12294022
-0.024833336 -0.21483333 0.72633332 11570298
-0.015000001 -0.2141111 0.72511107 8351082
-0.0060000001 -0.21366666 0.72300005 11644079
0.0049285712 -0.21414289 0.72214288 12885386
0.015000001 -0.21600002 0.72077781 12951178
0.022800002 -0.2148 0.7202 13016458
0.030000001 -0.21300001 0.72000003 12950666
-0.041000001 -0.20900001 0.72900003 13542804
-0.035 -0.20750003 0.72866672 9664620
-0.02475 -0.2059167 0.72791672 12490109
-0.015000001 -0.20533335 0.72700006 6968397
-0.0060000001 -0.205 0.72511113 10196376
0.0044999998 -0.20475 0.72416669 12951179
0.015 -0.20550001 0.72266674 13016456
0.024000002 -0.20550001 0.7215001 12884871
0.033866666 -0.2052 0.72066677 12819335
0.043625005 -0.20362499 0.72050005 12753543
0.052999999 -0.20271429 0.7201429 12621700
-0.022500003 -0.19925 0.72874999 12291185
-0.014333334 -0.19611113 0.72855562 5982279
-0.0059999996 -0.19450001 0.72675008 9603211
0.0044999998 -0.19450003 0.72631246 12819335
0.015 -0.19408333 0.72525001 12950406
0.023999998 -0.19511111 0.72366673 12884613
0.034083333 -0.19499999 0.72275013 12818821
0.044000003 -0.19499999 0.72211117 12753029
0.05450001 -0.19500001 0.72091675 12621445
0.065000005 -0.19500001 0.72000003 12424064
0.074000001 -0.19199999 0.72000003 12358786
-0.0051428573 -0.18442859 0.72842866 8942962
0.0044999998 -0.18400002 0.72808337 12687235
0.015000001 -0.184 0.72700012 12884614
0.023999998 -0.18525003 0.72600001 12818565
0.033785712 -0.18528573 0.72464287 12752772
0.044 -0.18600002 0.72366667 12752772
0.054500002 -0.186 0.72250003 12555394
0.065000005 -0.186 0.72177786 12358525
0.074727267 -0.186 0.72100008 12161148
0.0845 -0.18599999 0.72020006 9860458
0.093400009 -0.18420002 0.72000003 10978934
0.0067500002 -0.17725 0.72900003 12885128
0.015375 -0.17537501 0.72875005 12884614
0.024 -0.17500001 0.7276668 12752771
0.034499995 -0.17550001 0.72650003 12621185
0.044 -0.17575002 0.72541666 12621442
0.054500006 -0.17562503 0.72462505 12489600
0.065000005 -0.17550002 0.72375005 12358015
0.074571423 -0.17528573 0.72292858 12358529
0.084285721 -0.1757143 0.72207153 9795179
0.094000004 -0.17550002 0.72175008 10650226
0.10128572 -0.17485715 0.72100008 6841449
0.018000001 -0.16900001 0.72900003 12818051
0.024600003 -0.16780002 0.72880006 12817795
0.03464286 -0.16514285 0.72828579 12555136
0.044 -0.16441667 0.72750002 12620928
0.054500002 -0.16437502 0.72674996 12423550
0.065000005 -0.16425 0.72608328 12291964
0.074000001 -0.16433334 0.72541666 12160892
0.083875008 -0.16418749 0.72468752 9728613
0.094000004 -0.16408333 0.72366667 9992044
0.1015 -0.164125 0.72262508 7038313
0.038000003 -0.15700001 0.72900003 12686463
0.045000002 -0.15500002 0.72883338 12489085
0.054909099 -0.15427275 0.72854555 12357498
0.064999998 -0.15400001 0.727889 12291706
0.074000008 -0.15400001 0.72722226 12160634
0.084166668 -0.15400003 0.72683334 9136476
0.094000004 -0.15400001 0.7256667 10188909
0.10150001 -0.15400001 0.7245 6972778
0.059000004 -0.148 0.72900003 12357498
0.065000005 -0.148 0.72900003 12291707
0.074000008 -0.14650001 0.72900003 12094587
0.084636368 -0.14527272 0.7281819 11437171
0.094000004 -0.145 0.72733343 11043955
0.1015 -0.145 0.72666669 7038572
0.087500006 -0.13900001 0.72900003 12291452
0.094428577 -0.13699999 0.72900003 10911857
0.1015 -0.13537499 0.72887504 7952735
0.088000007 -0.12100001 0.72900003 12159866
0.094500005 -0.12175 0.727 11108720
0.10125 -0.12575001 0.72724998 8149340
-0.099000007 -0.112 0.72400004 4731182
-0.024500001 -0.11175001 0.72750008 13279627
-0.014000001 -0.11100001 0.72533339 13279627
-0.0056666671 -0.11100001 0.72300005 13279883
0.0015 -0.11100001 0.72100002 13213834
0.015000001 -0.115 0.72900003 12621182
0.024999999 -0.115 0.72775006 13016197
0.035 -0.114 0.72533339 12885123
0.045249999 -0.11400001 0.72400004 12951430
0.056000002 -0.11500001 0.72350001 12819077
0.0638 -0.11640002 0.72500002 12358526
0.074500002 -0.11800001 0.72625005 12292220
0.084666669 -0.11700001 0.72333336 12424578
0.094500005 -0.11850001 0.72049999 10518642
-0.093000002 -0.109 0.72400004 13543571
-0.08625 -0.109 0.72825003 13411985
-0.075333335 -0.10866667 0.72433335 13346190
-0.067500003 -0.108 0.72049999 13740948
-0.21200001 -0.052333336 0.72466666 6698014
-0.20775001 -0.054000005 0.72250009 8605243
-0.21600001 -0.044666674 0.72383338 7288868
-0.20766668 -0.045000006 0.72766668 9593163
-0.21700001 -0.038000003 0.72250003 10848907
-0.20700002 -0.035 0.722 7497312
-0.20200001 0.019000001 0.72100002 7434098
0.21400002 0.011000001 0.72800004 7697274
0.25200003 0.015500001 0.72650003 7893105
-0.21466668 0.026333334 0.72366673 10120274
-0.20900001 0.023000002 0.72400004 9998474
-0.19800001 0.025000002 0.722 12620402
0.21600001 0.020000001 0.72400004 8881806
0.24650002 0.020000001 0.72400004 8092288
-0.2138 0.035 0.72520006 7946274
-0.1965 0.032500003 0.722 12027492
-0.20666666 0.040000003 0.72333336 9661785
-0.19900002 0.040000003 0.72000003 10450528
-0.094999999 -0.24300002 0.73049998 12230287
-0.090000004 -0.24400002 0.73000002 13676449
-0.10383334 -0.23450001 0.73266667 11045505
-0.096166678 -0.23533334 0.73200005 13411984
-0.085909098 -0.23581821 0.73090911 13741200
-0.075750008 -0.23300001 0.73000002 13214601
-0.1045 -0.22500001 0.73533338 10781561
-0.09644445 -0.22488891 0.7345556 13675669
-0.085500002 -0.22549999 0.73325002 11046012
-0.075000003 -0.22508334 0.7318334 8087391
-0.066300005 -0.22360003 0.73089999 8876649
-0.057600003 -0.22140002 0.73039997 11638146
-0.1045 -0.21600001 0.73600006 10912889
-0.096111111 -0.21544446 0.7357778 13740949
-0.085500002 -0.21499999 0.73516673 9665136
-0.075000003 -0.21422224 0.73355556 13609624
-0.066375002 -0.214375 0.73224998 12820363
-0.054900002 -0.21540001 0.73079997 8745320
-0.047666669 -0.21600002 0.73000002 6115148
-0.10428572 -0.20614287 0.73814285 8085079
-0.096400008 -0.20580001 0.73769999 13872533
-0.085500002 -0.20600002 0.73666668 9665389
-0.075000003 -0.20511112 0.73500001 7298650
-0.065700002 -0.20540002 0.73360008 11834758
-0.055500001 -0.20556252 0.73256254 9336942
-0.044363637 -0.20481819 0.7305454 10388600
-0.035 -0.20300001 0.73000002 5589323
-0.095399998 -0.19820002 0.73880005 13806999
-0.085199997 -0.19573335 0.73826671 13346963
-0.075000003 -0.19450003 0.73700005 11834498
-0.066000007 -0.19450003 0.73624998 6181199
-0.055909097 -0.19527274 0.73427278 9665906
-0.044600002 -0.1944 0.73220003 10125942
-0.035 -0.19550002 0.73125005 10124656
-0.025583336 -0.19425 0.73041672 12555904
-0.016999999 -0.19200002 0.73000002 9530204
-0.081 -0.18800001 0.73900002 12691094
-0.074999996 -0.18550001 0.73850006 8745578
-0.065571435 -0.18485714 0.73842859 7693151
-0.055600002 -0.18513337 0.73626667 9665394
-0.044111114 -0.186 0.7344445 10782588
-0.035111114 -0.18577778 0.73377776 13148815
-0.025166666 -0.18508333 0.73241669 12621697
-0.015000001 -0.185 0.73111111 4996671
-0.0090000005 -0.183 0.73000002 10592164
-0.064500004 -0.178 0.73900002 13215123
-0.055000007 -0.17533334 0.73825002 11701885
-0.044666674 -0.17550002 0.73683339 12293508
-0.035500001 -0.17550004 0.73591667 13082508
-0.025615385 -0.17569232 0.73423076 11570042
-0.015000001 -0.17600001 0.73266667 5590870
-0.0060000001 -0.17500001 0.73033333 10060415
0.0033750003 -0.173875 0.73012501 12161408
0.012 -0.17200001 0.73000002 12818567
-0.052000001 -0.16700001 0.73900002 13016458
-0.044375002 -0.16537501 0.7385 11702142
-0.035333332 -0.16499999 0.73744446 9139050
-0.024933333 -0.16553336 0.73579997 9007207
-0.015 -0.1655 0.73449999 9926765
-0.0059999996 -0.16516668 0.73233336 12490373
0.0045000003 -0.16475002 0.73162508 12686979
0.014727274 -0.16418181 0.73081821 12752771
0.023571428 -0.16214286 0.7302857 12752258
0.031500001 -0.16000001 0.73000002 12555389
-0.034777775 -0.15566668 0.73877776 6772566
-0.0253125 -0.15412503 0.73756254 10650487
-0.015300001 -0.15449998 0.73620003 12818310
-0.0059999996 -0.155 0.73500001 12883845
0.0044999998 -0.15499999 0.73400003 12818052
0.015000001 -0.1547778 0.73300004 12818051
0.023999998 -0.15422225 0.73177779 12686465
0.033999998 -0.15372729 0.73063636 12554878
0.041999999 -0.15200001 0.73000002 12554878
0.050000001 -0.15100001 0.73000002 12291706
-0.023999998 -0.147 0.73900002 12949896
-0.014333334 -0.14533335 0.73811108 12949381
-0.0063 -0.14550002 0.73720002 12817796
0.0045000003 -0.14600001 0.73600006 12752003
0.015000001 -0.14600001 0.73500001 12686466
0.023999998 -0.14600001 0.73399997 12620672
0.034500003 -0.14566667 0.73275 12489085
0.044111114 -0.1451111 0.73144436 12489342
0.054090913 -0.14472727 0.7305454 12423292
0.065000005 -0.14350002 0.73049998 12225658
0.074000001 -0.142 0.73000002 12225914
0.080000006 -0.142 0.73000002 12357500
-0.0054000001 -0.1388 0.73859996 12883589
0.0048000002 -0.13599999 0.73826671 12686465
0.015000001 -0.13550001 0.73741668 12620672
0.023999998 -0.1355 0.7362501 12554880
0.034500003 -0.1355 0.73487496 12488831
0.044333335 -0.13541669 0.73383349 12423038
0.054499999 -0.13537501 0.73331255 12357501
0.064999998 -0.13541669 0.73258328 12225913
0.074000001 -0.13541667 0.73191667 12160121
0.084071442 -0.13471432 0.7309286 12160121
0.093600005 -0.1322 0.73000002 11437426
0.0090000005 -0.125 0.73900002 12686719
0.015000001 -0.12500001 0.73855555 12555134
0.024 -0.12500001 0.73788887 12489084
0.034499999 -0.125 0.73633343 12423548
0.044444442 -0.125 0.73555565 12357757
0.054500002 -0.125 0.73491675 12226172
0.064999998 -0.125 0.73377782 12160122
0.074000001 -0.125 0.73255551 12160122
0.083909094 -0.12509091 0.73136365 12028792
0.094000004 -0.12680002 0.7306 11568756
-0.10300001 -0.116 0.73300004 3813432
-0.096000001 -0.11350001 0.73650002 11898491
-0.074000001 -0.11366668 0.73800009 11635833
-0.065000005 -0.11300001 0.73566675 12754055
-0.056000005 -0.11300001 0.73366666 12885126
-0.045500003 -0.1125 0.73250008 13214089
-0.034250002 -0.11300001 0.73275 12951173
-0.024500001 -0.116 0.73750007 11963509
-0.014333334 -0.116 0.73533338 10911077
-0.0059999996 -0.11566667 0.73366666 11371372
0.0045000003 -0.11700001 0.734375 12423546
0.015000001 -0.119 0.73600006 12685950
0.023999998 -0.119 0.73533338 12554618
0.034000002 -0.11875 0.73300004 12488571
0.044 -0.11800001 0.73133332 12422779
0.053000003 -0.11800001 0.73033333 12291707
-0.21371432 -0.043857146 0.73357147 7224617
-0.208 -0.043000001 0.73000002 9658436
-0.21400002 -0.037 0.73250002 6314845
-0.20700002 -0.0040000002 0.73900002 13024448
0.25133336 0.016000001 0.73666668 7762807
-0.21300001 0.02675 0.73600006 9788995
-0.20300001 0.0275 0.7335 13735801
0.22550002 0.020000001 0.7385 8224135
0.23450001 0.020000001 0.73699999 8420996
0.24250001 0.020000001 0.73199999 8487046
-0.21300001 0.033000004 0.73366666 8537124
-0.20500001 0.036200002 0.73459995 9922124
-0.10600001 -0.20100001 0.74000001 5194056
-0.1045 -0.19500001 0.74066669 7165524
-0.09616667 -0.19283335 0.74033338 13807511
-0.090000004 -0.19100001 0.74000001 13544340
-0.10420001 -0.18540001 0.74260008 6902609
-0.096333332 -0.18533331 0.74200004 13873048
-0.085909098 -0.18472725 0.74090916 9599597
-0.075000003 -0.18100001 0.74000001 5983563
-0.067500003 -0.18100001 0.74000001 7626586
-0.10428572 -0.17485715 0.74457139 9928052
-0.096900001 -0.17590001 0.7439 13873304
-0.085500002 -0.17600001 0.7421667 12688778
-0.075000003 -0.17500001 0.74055552 11505021
-0.066428572 -0.17414287 0.74028575 13280143
-0.060000002 -0.17200001 0.74000001 13345420
-0.1045 -0.16500002 0.74666673 8283999
-0.096545458 -0.16554545 0.74609095 13806998
-0.085500002 -0.16550002 0.74393749 10848119
-0.07500001 -0.16458334 0.74225003 10387571
-0.066000007 -0.16450001 0.74125004 11505277
-0.056750003 -0.16383334 0.74041671 11176312
-0.048 -0.16100001 0.74050003 8613223
-0.10500001 -0.15800001 0.7486667 9468531
-0.096625008 -0.156 0.74837506 13873048
-0.085500002 -0.15499999 0.74608344 10716790
-0.075000003 -0.15433335 0.74455559 6903896
-0.066000007 -0.15400001 0.74322224 5852754
-0.055153847 -0.15438463 0.74215388 5458510
-0.04472727 -0.15436365 0.74090916 5983824
-0.037666667 -0.15100001 0.74000001 10256244
-0.094000004 -0.14600001 0.74900001 13411729
-0.085500002 -0.14600001 0.74741673 13214350
-0.075000003 -0.14566666 0.74633336 13148815
-0.066000007 -0.14511111 0.74566674 13214093
-0.055500004 -0.145 0.74441665 13147785
-0.045000002 -0.14455555 0.74266672 12950662
-0.036000002 -0.14399999 0.74133343 13016200
-0.026000001 -0.14300001 0.74044448 12950150
-0.0165 -0.141 0.74000001 12883844
-0.084374994 -0.138125 0.74875003 13344909
-0.075000003 -0.13700001 0.7485556 13344908
-0.066000007 -0.13500001 0.7479167 13278859
-0.055500004 -0.13450001 0.74643755 13147274
-0.045000002 -0.13441667 0.74475002 13081224
-0.036272731 -0.13436364 0.74390912 12949639
-0.0255 -0.13500001 0.74225003 13015175
-0.015000001 -0.13499999 0.74088901 12817796
-0.0060000005 -0.13349999 0.74016666 12752002
0 -0.132 0.74000001 12620672
-0.10200001 -0.12200001 0.74900001 7496039
-0.072000004 -0.12100001 0.74900001 13410186
-0.065625004 -0.124 0.74900001 13344392
-0.055500004 -0.12399999 0.7479167 13212807
-0.045000002 -0.12399999 0.74688894 13015685
-0.036000002 -0.12525001 0.74537504 12818307
-0.0255 -0.12608334 0.7438333 12883845
-0.015000001 -0.126 0.74222231 12752258
-0.0059999996 -0.126 0.74166673 12686464
0.0030000003 -0.126 0.74033332 12686207
-0.10200001 -0.11800001 0.74500006 6508630
-0.095500007 -0.11650001 0.74450004 12292989
-0.084285721 -0.11585715 0.7442857 11700853
-0.074999996 -0.11800001 0.74666673 11109230
-0.065666668 -0.11766667 0.74466676 10582885
-0.056000005 -0.11700001 0.74333334 11700852
-0.045500003 -0.11700001 0.74150002 12621438
-0.035500001 -0.11850001 0.74250007 12490108
-0.0255 -0.12 0.74300003 12949632
-0.015000001 -0.12 0.74133331 12751997
-0.0059999996 -0.12 0.74000001 12686204
0.22200002 0.017000001 0.74500006 7565944
0.24900001 0.017000001 0.74600005 5065807
-0.21200001 0.0275 0.74349999 9062951
-0.20899999 0.026000001 0.74466676 9591359
-0.21150002 0.033500001 0.74199998 8011552
-0.20950001 0.033500001 0.74550003 7879968
-0.10375001 -0.153 0.75050008 10980224
-0.098999999 -0.15100001 0.75033337 14464931
-0.1045 -0.14399999 0.75050002 8283490
-0.098500006 -0.14383334 0.75066668 14464673
-0.10300001 -0.13433334 0.75100011 11899274
-0.095750004 -0.1345 0.75141668 13938071
-0.085500002 -0.13300002 0.75033337 13410190
-0.07500001 -0.13100001 0.75000006 13410188
-0.10300001 -0.12650001 0.75050008 9007212
-0.0955 -0.12516665 0.75258344 13739921
-0.084000006 -0.12500001 0.75099999 13475979
-0.075375006 -0.125375 0.75000006 13410186
-0.069000006 -0.125 0.75000006 13344393
-0.094500005 -0.119 0.75000006 14332568
-0.090000004 -0.119 0.75000006 13477259
0.24566668 0.017333334 0.75633335 8289667
0.2525 0.014 0.75350004 8289150
0.22900002 0.015000001 0.76800001 7762810
0.23466666 0.018000001 0.76433343 8157824
0.24000001 0.018000001 0.76100004 8354947
0.252 0.015000001 0.76600003 7039083
0.24900001 0.015000001 0.77800006 7565685
0.25300002 0.0135 0.77400005 6775654
0.23550001 0.0135 0.7845 7763066
0.245 0.015000001 0.78600007 7894652
0.25500003 0.012 0.78400004 8289151
0.23800001 0.0090000005 0.79600006 7828859
0.24200001 0.012 0.79900002 7894909
0.25300002 0.012 0.79550004 6973547
0.24700001 0.012 0.80400002 7829115
0.25 0.012 0.80300003 7434099
0.24600001 0.0090000005 0.81100005 7829115
0.25366667 0.0090000005 0.81366676 7960442
-0.81000006 0.050000001 1.2880001 9868942
-0.82100004 0.038000003 1.294 9803917
-0.81500006 0.038000003 1.296 9408646
-0.80900002 0.038000003 1.2970001 9737355
-0.81200004 0.044000003 1.291 9605768
-0.80450004 0.044000003 1.296 9737612
-0.80333334 0.051666666 1.296 9277576
-0.79300004 0.061000004 1.2950001 3292211
-0.82800007 0.033 1.304 9803921
-0.81450003 0.033 1.3005002 9277067
-0.80450004 0.035500001 1.302 9671566
-0.79600006 0.035500001 1.306 9671566
-0.79500008 0.044000003 1.3035002 9737356
-0.78700006 0.044000003 1.309 9671561
-0.7943334 0.052000001 1.3043336 10979706
-0.78700006 0.053000003 1.309 6051663
-0.82400006 0.027000001 1.3165001 11778488
-0.81200004 0.027000001 1.3150001 11646901
-0.80400002 0.027000001 1.314 10593700
-0.79650003 0.027000001 1.319 10198687
-0.78600001 0.035500001 1.3130001 9737356
-0.77800006 0.038000003 1.3180001 9934220
-0.78200006 0.044000003 1.3130001 9605768
-0.77800006 0.044000003 1.317 9999756
-0.78200006 0.053000003 1.3125 6644059
-0.77466673 0.054000001 1.316 4801857
-0.78600001 0.062000003 1.3130001 3157548
-0.78450006 0.027000001 1.3230001 9869207
-0.77700001 0.027000001 1.3290001 9540242
-0.77450007 0.034499999 1.324 9802895
-0.76900005 0.039000001 1.3260001 9933965
-0.77300006 0.044000003 1.3210001 9868942
-0.76550001 0.044000003 1.3270001 9802379
-0.77200001 0.050000001 1.3200001 7235939
-0.76566666 0.052000001 1.3253335 6315352
-0.77200001 0.062000003 1.3200001 4867392
-0.77200001 0.027000001 1.332 9408912
-0.76700002 0.027000001 1.3360001 9474705
-0.76300001 0.035 1.3330001 9934225
-0.75650001 0.039000001 1.3360001 10065551
-0.75600004 0.044500001 1.335 10065038
-0.75600004 0.050000001 1.3355 6841953
-0.80000001 0.021000002 1.3430001 11976130
-0.78500003 0.021000002 1.3430001 11449273
-0.77500004 0.021000002 1.3440001 11383222
-0.76450002 0.024 1.3440001 10922155
-0.75400007 0.027000001 1.3445001 9671827
-0.75500005 0.033 1.34 10066068
-0.74675006 0.035999998 1.3440001 9999760
-0.74700004 0.045000002 1.3440001 10394514
-0.74600005 0.051000003 1.3490001 3945774
-0.76100004 0.021000002 1.35 10856875
-0.75700003 0.021000002 1.3560001 10330272
-0.74450004 0.027000001 1.3525001 9803155
-0.73700005 0.027000001 1.3590001 9737362
-0.73725003 0.036000002 1.35225 10065553
-0.73000002 0.035999998 1.3585 9934224
-0.73800004 0.045000002 1.3540001 9867658
-0.74300003 0.051000003 1.3560001 3945775
-0.59100002 -0.031000001 1.363 3815742
-0.76300001 0.016000001 1.3670001 4541779
-0.75200003 0.021000002 1.36 10395550
-0.74800003 0.021000002 1.365 9935000
-0.73200005 0.027000001 1.363 9934737
-0.72400004 0.027000001 1.3670001 10066324
-0.72399998 0.037 1.3646668 9999761
-0.72000003 0.033 1.3660001 10262681
-0.73200005 0.045000002 1.3610001 8222834
-0.72400004 0.045000002 1.3670001 6972509
-0.73900002 0.051000003 1.3610001 3550760
-0.80600005 0.016000001 1.3790001 9936034
-0.79400003 0.016000001 1.3700001 8620687
-0.78800005 0.016000001 1.373 5199706
-0.77700001 0.016000001 1.3790001 4346193
-0.76200002 0.016000001 1.378 4869453
-0.74300003 0.022000002 1.3700001 10198428
-0.73400003 0.022000002 1.372 9935001
-0.72400004 0.021000002 1.3740001 9803416
-0.71533328 0.023000002 1.375 9934745
-0.70750004 0.027000001 1.376 10000537
-0.7155 0.035999998 1.3705001 9999507
-0.70750004 0.035999998 1.3755001 10065555
-0.71350002 0.045000002 1.3740001 5656137
-0.76900005 0.058000002 1.3770001 4736318
-0.73400003 0.051000003 1.372 3287589
-0.72400004 0.051000003 1.373 4208180
-0.72000003 0.051000003 1.3790001 4471607
-0.78800005 0.016000001 1.3850001 4409676
-0.76000005 0.016000001 1.388 4475213
-0.727 0.016000001 1.3865001 7765632
-0.71800005 0.016000001 1.3890001 8093827
-0.704 0.022000002 1.382 9803417
-0.69633341 0.025333336 1.3840002 9935002
-0.68900001 0.027000001 1.3870001 9737365
-0.70000005 0.039000001 1.381 9932941
-0.69500011 0.034499999 1.3850001 10196629
-0.704 0.045000002 1.3820001 4275000
-0.71300006 0.051000003 1.3855 4603451
-0.82200003 0.016000001 1.3920001 10331308
-0.75400001 0.016000001 1.3900001 3949124
-0.74700004 0.016000001 1.391 3686466
-0.74000001 0.016000001 1.391 5133142
-0.71300006 0.016000001 1.393 8224897
-0.704 0.016000001 1.396 8487557
-0.69100004 0.022000002 1.391 9606039
-0.68500006 0.025000002 1.3930001 9869210
-0.67766666 0.026000001 1.3966669 9802903
-0.69100004 0.039000001 1.3900001 9603977
-0.68500006 0.034000002 1.393 10131095
-0.68000001 0.034000002 1.3970001 10196629
-0.69599998 0.045500003 1.3940001 3155749
-0.68350005 0.040000003 1.3965001 9208961
-0.708 0.052000001 1.3970001 5393738
-0.611 -0.026000001 1.409 3354934
-0.74100006 0.010000001 1.4070001 2308673
-0.73500001 0.010000001 1.4080001 2835789
-0.72800004 0.010000001 1.4080001 3952467
-0.69300008 0.016000001 1.4025 8487816
-0.68400002 0.016000001 1.406 9671835
-0.67800003 0.016000001 1.4080001 9145235
-0.67500001 0.022000002 1.401 9802905
-0.66700006 0.025000002 1.4050001 9802902
-0.67500001 0.034000002 1.4000001 10131349
-0.66750002 0.034000002 1.4060001 10065557
-0.69000006 0.046000004 1.4030001 3551279
-0.68500006 0.046000004 1.4070001 3683120
-0.67500001 0.040000003 1.401 7629930
-0.66750002 0.040000003 1.4060001 6183511
-0.70500004 0.052000001 1.4050001 2959397
-0.60100001 -0.020000001 1.4180001 2565165
-0.82100004 0.010000001 1.4170001 4803920
-0.77700001 0.010000001 1.4180001 10396223
-0.76700002 0.010000001 1.414 3558965
-0.75500005 0.010000001 1.4120001 1979706
-0.72200006 0.010000001 1.411 3950404
-0.71450001 0.010000001 1.4170001 3093810
-0.67300004 0.016000001 1.411 10197664
-0.66400003 0.016000001 1.4135001 9474197
-0.65500003 0.016000001 1.4170001 9606040
-0.64900005 0.016000001 1.419 9605785
-0.65650004 0.025000002 1.41275 9803159
-0.64900005 0.025000002 1.4180001 9868696
-0.65700006 0.034000002 1.4135001 10065555
-0.64900005 0.034000002 1.419 9867920
-0.65700006 0.040000003 1.4135001 4998981
-0.64900005 0.040000003 1.419 4142903
-0.75200003 -0.0020000001 1.4260001 1922657
-0.76600003 0.0040000002 1.4250001 1397597
-0.75700003 0.0040000002 1.4220001 1659228
-0.74550003 0.0040000002 1.4220001 1132372
-0.73700005 0.0040000002 1.4260001 936789
-0.83650005 0.010000001 1.424 6119268
-0.82000005 0.010000001 1.4280001 7435896
-0.704 0.010000001 1.424 3817034
-0.69600004 0.010000001 1.429 2041143
-0.68700004 0.010000001 1.4260001 1646640
-0.67700005 0.010000001 1.4265001 1646382
-0.66600001 0.010000001 1.4250001 855834
-0.65600002 0.010000001 1.427 3750719
-0.64500004 0.013 1.4255002 7039857
-0.63900006 0.016000001 1.427 9540247
-0.64400005 0.025000002 1.4225001 9737365
-0.63900006 0.025000002 1.4265001 9605780
-0.64400005 0.034000002 1.4230001 9867921
-0.63900006 0.034000002 1.4260001 10196627
-0.64500004 0.040000003 1.424 3946041
-0.61500001 -0.020000001 1.4350001 2434090
-0.76450002 -0.0020000001 1.4305 2179915
-0.74600005 -0.0020000001 1.4360001 4220011
-0.77700001 0.0040000002 1.432 940131
-0.73300004 0.0040000002 1.4330001 935246
-0.72450006 0.0040000002 1.437 1130827
-0.63100004 0.0040000002 1.439 2500653
-0.79500002 0.010000001 1.437 10527572
-0.64100003 0.010000001 1.4310001 7698043
-0.63450003 0.013 1.4320002 9342867
-0.62600005 0.013 1.4367501 9474197
-0.634 0.025000002 1.431 9606037
-0.62600005 0.025 1.4365001 9737366
-0.634 0.034000002 1.4310001 9736848
-0.62650001 0.034000002 1.437 9801873
-0.72500002 0.059000004 1.4310001 2038294
-0.70550001 0.15200001 1.437 6907495
-0.62700003 -0.021000002 1.447 3092019
-0.61400002 -0.014 1.4490001 2697266
-0.73900002 -0.0020000001 1.4440001 4938594
-0.71000004 -0.0090000005 1.4430001 2105380
-0.71700001 0.0040000002 1.4440001 5138544
-0.70650005 0.0040000002 1.4450001 7306126
-0.69800001 0.0040000002 1.4490001 8885161
-0.65500003 0.0040000002 1.447 3223862
-0.648 0.0040000002 1.447 3092790
-0.63800001 0.0040000002 1.4410001 2895668
-0.62600005 0.0040000002 1.4430001 1842984
-0.61699998 0.0040000002 1.447 5659240
-0.61600006 0.013 1.4447501 9803164
-0.61600006 0.025000002 1.4445001 9803161
-0.60800004 0.022000002 1.4490001 9802905
-0.61600006 0.034000002 1.4445001 7960183
-0.60800004 0.034000002 1.4490001 6052445
-0.60700005 0.040000003 1.447 5526360
-0.59200001 0.040000003 1.4440001 4275519
-0.58700001 0.040000003 1.447 6381410
-0.57550001 0.040000003 1.4445001 6316133
-0.70000005 0.15300001 1.447 6644323
-0.63900006 -0.021000002 1.4590001 2829101
-0.62300003 -0.015000001 1.4540001 2763309
-0.73500001 -0.0020000001 1.45 4411217
-0.72400004 -0.0020000001 1.451 3031881
-0.71300006 -0.0020000001 1.4510001 1393744
-0.70350003 -0.0020000001 1.4530001 1394003
-0.69600004 -0.0020000001 1.4590001 1327949
-0.63499999 -0.0050000004 1.4575001 2697518
-0.62533337 -0.0040000002 1.4530001 2236970
-0.61500001 -0.0040000002 1.4553334 4606033
-0.61000001 -0.0080000004 1.455 2500400
-0.69200003 0.0040000002 1.4510001 8424610
-0.68600005 0.0040000002 1.4530001 8293018
-0.676 0.0040000002 1.4550002 3027257
-0.66500002 0.0040000002 1.4540001 2565675
-0.60900003 0.0040000002 1.4530001 6186357
-0.82800007 0.010000001 1.4560001 5856606
-0.60575008 0.013 1.4530001 9671578
-0.60466671 0.026000001 1.4526668 9802904
-0.59800005 0.025000002 1.4590001 10000539
-0.60300004 0.034000002 1.4530001 4538949
-0.59800005 0.034000002 1.4580001 3946555
-0.74700004 0.067000002 1.4590001 5065799
-0.73100001 0.060000002 1.4560001 3288361
-0.64300001 -0.015000001 1.4670001 3355444
-0.63300002 -0.015000001 1.4610001 3223860
-0.73200005 -0.0090000005 1.46 2895663
-0.69200003 -0.0020000001 1.4670001 2178628
-0.64499998 -0.0055000004 1.4645001 4342343
-0.80300003 0.0040000002 1.4670001 2846323
-0.60700005 0.0040000002 1.4630001 6581369
-0.59675002 0.013 1.46375 10000801
-0.59300005 0.025000002 1.4635 10066077
-0.588 0.025000002 1.4675001 9934746
-0.59300005 0.034000002 1.462 3157553
-0.588 0.034000002 1.4660001 3025966
-0.73000002 0.086000003 1.4690001 3948093
-0.73100001 0.149 1.4670001 11317680
-0.70100003 0.15400001 1.465 6117979
-0.68900001 -0.0020000001 1.475 4672079
-0.66800004 -0.0020000001 1.4770001 3947842
-0.65600002 -0.0055000004 1.4735 4408137
-0.611 -0.0080000004 1.473 6515322
-0.61000001 -0.0020000001 1.47 5199718
-0.60500002 0.0040000002 1.475 6713466
-0.82650006 0.010000001 1.474 8822400
-0.59100002 0.010000001 1.475 10329509
-0.58650005 0.016000001 1.4720001 9934492
-0.57900006 0.016000001 1.478 9934748
-0.583 0.025000002 1.4725001 10131868
-0.57566667 0.026000002 1.4766668 10394781
-0.583 0.035 1.4710001 2894380
-0.57450002 0.035 1.4760001 3025967
-0.56600004 0.035 1.4790001 3552570
-0.74900001 0.067000002 1.4770001 2565409
-0.73400003 0.061000004 1.478 2630946
-0.74100006 0.086000003 1.4760001 7895672
-0.72600001 0.080000006 1.475 5000527
-0.75000006 0.099000007 1.478 7369846
-0.73800004 0.092000008 1.47 8290946
-0.71700001 0.149 1.4755001 10922668
-0.74550003 0.15000001 1.4740001 10724772
-0.72900003 0.15000001 1.4770001 11382959
-0.69500005 0.155 1.4755001 5722968
-0.66600001 -0.015000001 1.4870001 6382180
-0.65700001 -0.015000001 1.4820001 4934990
-0.68500006 -0.0020000001 1.4810001 3882561
-0.67700005 -0.0020000001 1.48 3289911
-0.66500002 -0.0090000005 1.485 5921631
-0.61000001 -0.0055000004 1.4880002 1712949
-0.60300004 0.0040000002 1.488 7962507
-0.58350003 0.010000001 1.4820001 10066337
-0.574 0.013 1.4845002 10000797
-0.56800002 0.016000001 1.4860001 10000284
-0.57300001 0.022000002 1.48 10000538
-0.56400001 0.025250001 1.4845001 10197659
-0.55500001 0.029000001 1.488 8223612
-0.56100005 0.035 1.485 5131603
-0.55400002 0.035 1.485 6184293
-0.54000002 0.035 1.483 7171701
-0.74700004 0.068000004 1.4890001 3814706
-0.75200003 0.074000001 1.4820001 2367257
-0.74800003 0.074000001 1.4890001 2893863
-0.73650002 0.074000001 1.4885001 6973801
-0.74500006 0.080000006 1.4840001 6776164
-0.73600006 0.080000006 1.4810001 3750201
-0.74500006 0.099000007 1.4820001 7435640
-0.70500004 0.149 1.4810001 9146258
-0.60900003 0.141 1.4810001 13412996
-0.69400001 0.15000001 1.4880002 7435387
-0.68800002 0.155 1.4820001 9408401
-0.67700005 -0.015000001 1.4950001 7435126
-0.68599999 -0.0090000005 1.4920001 4671819
-0.67700005 -0.0090000005 1.4960001 5395287
-0.59600008 0.0040000002 1.4960001 8949658
-0.57000005 0.010000001 1.4900001 10000535
-0.56350005 0.013 1.4920001 10000283
-0.55633336 0.014000001 1.4966668 10000281
-0.55400002 0.022000002 1.4935001 10000023
-0.54699999 0.027000001 1.4956669 6513508
-0.55000001 0.035 1.4910001 6776686
-0.537 0.035 1.4940001 7368824
-0.74200004 0.068000004 1.493 7763315
-0.73500001 0.068000004 1.493 5527125
-0.76100004 0.10700001 1.4990001 3488060
-0.76100004 0.14600001 1.498 13553868
-0.74500006 0.14500001 1.4950001 10725027
-0.73900002 0.14500001 1.4990001 9869720
-0.71700001 0.14500001 1.4990001 8160391
-0.70500004 0.14450002 1.4975001 8160138
-0.69500005 0.14400001 1.4990001 8686484
-0.68600005 0.15000001 1.4940001 6580848
-0.68000001 0.15000001 1.4970001 6053992
-0.611 -0.0020000001 1.5070001 1383984
-0.84700006 0.0040000002 1.503 8670032
-0.5855 0.0040000002 1.5055001 10987950
-0.57600003 0.0040000002 1.5070001 12434876
-0.55400002 0.010000001 1.5020001 9868439
-0.54566675 0.014000001 1.5046667 9934744
-0.54050004 0.026000001 1.5025001 6710631
-0.53550005 0.026000001 1.507 6578790
-0.75500005 0.14600001 1.5000001 11580592
-0.73200005 0.14500001 1.5000001 9212048
-0.72500002 0.14500001 1.5000001 8817804
-0.68599999 0.14400001 1.503 8620694
-0.67800003 0.14500001 1.5090001 8422544
-0.62600005 0.14300001 1.506 13281154
-0.67400002 0.15000001 1.501 5790562
-0.66800004 0.15000001 1.503 5724258
-0.65700006 0.15000001 1.5025001 5920608
-0.61300004 -0.0090000005 1.5130001 2569810
-0.60700005 -0.0020000001 1.5140001 1450553
-0.84300005 0.0040000002 1.5100001 7694966
-0.57100004 0.0040000002 1.511 11908277
-0.56600004 0.0040000002 1.5170001 10855847
-0.55599999 0.0040000002 1.5170001 10132123
-0.546 0.0040000002 1.5190001 9934745
-0.54300004 0.010000001 1.5100001 9868951
-0.53425002 0.013000001 1.5140001 9934489
-0.52600002 0.016000001 1.5190001 9869209
-0.53050005 0.026000001 1.5120001 6184029
-0.52550006 0.026000001 1.5170001 6184283
-0.51900005 0.029000001 1.5190001 3025713
-0.45100003 0.029000001 1.5140001 12095853
-0.77900004 0.109 1.5190001 3816503
-0.70300001 0.13900001 1.516 6185060
-0.62100005 0.13700001 1.5100001 14070930
-0.76300001 0.141 1.5170001 4474433
-0.71900004 0.14 1.5190001 6119009
-0.67400002 0.14500001 1.5180001 8356491
-0.66500002 0.14500001 1.5130001 7961218
-0.65500003 0.14450002 1.5150001 10913139
-0.64500004 0.14400001 1.516 13346691
-0.63600004 0.14400001 1.5120001 13149569
-0.611 -0.0090000005 1.524 2307670
-0.60200006 -0.0020000001 1.521 1844538
-0.59800005 -0.0020000001 1.5280001 5461605
-0.54100001 0.0040000002 1.5230001 10131870
-0.53500003 0.0040000002 1.5250001 9934490
-0.52366668 0.012000001 1.5253334 9868951
-0.51600003 0.017000001 1.529 9869208
-0.42800003 0.016000001 1.524 12686444
-0.52000004 0.023000002 1.5220001 9868950
-0.51450002 0.026000001 1.5245001 6579304
-0.50633335 0.027000001 1.5276667 6710892
-0.48100004 0.029000001 1.524 8552581
-0.46500003 0.029000001 1.5270001 7432556
-0.76400006 0.109 1.521 3553854
-0.634 0.13900001 1.526 13216650
-0.77200001 0.142 1.5200001 5526863
-0.75650001 0.1415 1.526 5395281
-0.74600005 0.142 1.529 5658454
-0.73800004 0.141 1.5280001 5855578
-0.72900003 0.141 1.5250001 6053216
-0.71200001 0.14 1.5200001 5987939
-0.69500005 0.14 1.5235001 6316390
-0.45600003 -0.015000001 1.5320001 12488298
-0.60800004 -0.0090000005 1.534 2240846
-0.59500003 -0.0020000001 1.5370001 7039602
-0.53100002 0.0040000002 1.534 9868952
-0.51450002 0.013500001 1.5350001 9934745
-0.505 0.017000001 1.5380001 9869209
-0.50400001 0.023000002 1.5330001 7500147
-0.49500003 0.027000001 1.5343333 7303028
-0.81000006 0.071000002 1.536 4603964
-0.80100006 0.077000007 1.534 10922665
-0.77700007 0.11700001 1.5380001 4605769
-0.68500006 0.14050001 1.534 6382696
-0.67500001 0.14 1.536 6777452
-0.66800004 0.14 1.536 7558468
-0.65650004 0.14 1.5355 14267029
-0.64600003 0.14 1.536 14070164
-0.60500002 -0.0090000005 1.5450001 2634317
-0.44000003 -0.0020000001 1.544 12817772
-0.52700001 0.0040000002 1.5410001 9802905
-0.51300001 0.010000001 1.5420001 9868952
-0.50800002 0.010000001 1.5480001 9868952
-0.49700001 0.017000001 1.5435001 10066331
-0.48800004 0.017000001 1.5480001 10131610
-0.49200001 0.023000002 1.5400001 5460820
-0.48450002 0.023000002 1.5465 3683895
-0.82500005 0.071000002 1.549 4670271
-0.79400003 0.11800001 1.549 5395535
-0.78600001 0.12400001 1.5470001 4144960
-0.78200006 0.13700001 1.5400001 5657424
-0.77700001 0.13700001 1.5450001 5921111
-0.634 0.134 1.5430001 12032124
-0.79100001 0.14400001 1.5410001 3355179
-0.60300004 -0.0090000005 1.559 7762035
-0.55500007 -0.0020000001 1.5530001 7368816
-0.546 -0.0020000001 1.5560001 9473938
-0.53900003 -0.0020000001 1.5580001 8816523
-0.45100003 -0.0020000001 1.559 12949102
-0.52400005 0.0040000002 1.5530001 9539734
-0.44200003 0.0040000002 1.552 13014638
-0.50300002 0.010000001 1.5510001 9934745
-0.49600002 0.010000001 1.5530001 9868695
-0.48533335 0.012333333 1.5533334 9934231
-0.47466668 0.014666668 1.5556668 10262168
-0.46400002 0.017000001 1.559 11569000
-0.45100003 0.013500001 1.559 12883053
-0.44250003 0.013500001 1.5525 12883053
-0.47300002 0.023000002 1.5535001 3023908
-0.46400002 0.023000002 1.5580001 11240038
-0.45700002 0.023000002 1.5580001 12620909
-0.89100003 0.079000004 1.5500001 2566176
-0.88600004 0.079000004 1.5560001 2631459
-0.87500006 0.079000004 1.5585001 4735552
-0.86450005 0.072000004 1.5555 5591884
-0.85300004 0.072000004 1.557 5328970
-0.84500003 0.072000004 1.5560001 2894885
-0.83300006 0.075000003 1.557 4736578
-0.81800002 0.078000002 1.5510001 5065802
-0.89400005 0.086000003 1.5550001 6185304
-0.88600004 0.086000003 1.557 4210745
-0.87900007 0.086000003 1.559 2499616
-0.90200007 0.093000002 1.5550001 9213581
-0.89500004 0.093000002 1.5580001 6778724
-0.88700002 0.093000002 1.557 4803140
-0.87900007 0.093000002 1.559 2762790
-0.90500003 0.10700001 1.559 10463391
-0.89500004 0.10700001 1.557 7700852
-0.88800007 0.1 1.559 5133132
-0.90300006 0.11400001 1.5560001 10266010
-0.89500004 0.11400001 1.5560001 8226938
-0.88800007 0.11400001 1.559 5857368
-0.90400004 0.12100001 1.557 15988977
-0.89550006 0.1235 1.5565001 13752780
-0.90400004 0.134 1.5560001 15528426
-0.89500004 0.134 1.5550001 13950417
-0.79800004 0.13800001 1.5550001 4079415
-0.78700006 0.13100001 1.5500001 5920598
-0.77300006 0.13800001 1.5530001 5592146
-0.66300005 0.13500001 1.559 14202259
-0.65500003 0.13500001 1.559 14006167
-0.648 0.13500001 1.559 9269334
-0.90500003 0.141 1.5580001 16645625
-0.89600003 0.1445 1.5565001 13029061
-0.88900006 0.1445 1.559 7042155
-0.89000005 0.155 1.559 7435883
-0.89300007 0.245 1.5580001 9674646
-0.47400004 -0.015000001 1.5690001 12033158
-0.53600001 -0.0020000001 1.567 9474453
-0.47700003 -0.0020000001 1.567 10261905
-0.46600002 -0.0020000001 1.5650001 12621165
-0.45900002 -0.0020000001 1.562 13014124
-0.52000004 0.0040000002 1.5610001 9737113
-0.51500005 0.0040000002 1.567 9737113
-0.50200003 0.0040000002 1.5690001 10065565
-0.49400002 0.0040000002 1.5660001 9999772
-0.48600003 0.0040000002 1.5630001 9933979
-0.47550005 0.0040000002 1.562 10590877
-0.46600002 0.0040000002 1.5630001 12423787
-0.45500004 0.0040000002 1.5615001 12883052
-0.47100002 0.010000001 1.5600001 10459801
-0.46500003 0.010000001 1.562 12160871
-0.45850003 0.013500001 1.5610001 12883053
-0.86400002 0.079000004 1.562 6710108
-0.85700005 0.079000004 1.5630001 6381913
-0.84900004 0.079000004 1.5630001 3092520
-0.84000003 0.079000004 1.562 4407100
-0.87300003 0.086000003 1.562 7499370
-0.86600006 0.086000003 1.5650001 7762798
-0.85500002 0.086000003 1.5675001 5329483
-0.84300005 0.086000003 1.5680001 3092014
-0.83500004 0.086000003 1.567 3420723
-0.82300001 0.085000001 1.5610001 8618885
-0.87300003 0.093000002 1.562 8156791
-0.86600006 0.093000002 1.5650001 8026998
-0.86000001 0.093000002 1.5680001 8092791
-0.83600003 0.093000002 1.5690001 2827818
-0.90700006 0.1 1.5630001 10002327
-0.88333338 0.10466667 1.5603334 3947576
-0.87400001 0.10350001 1.5635002 8355198
-0.86750007 0.10350001 1.5665001 9080200
-0.86000001 0.1 1.5690001 8817027
-0.88100004 0.11400001 1.5610001 3684917
-0.87400001 0.11400001 1.5640001 8157303
-0.86800003 0.11400001 1.567 9870486
-0.80900002 0.119 1.562 9342858
-0.89000005 0.127 1.5610001 6318430
-0.88466674 0.12266668 1.5616668 4803909
-0.87550008 0.12400001 1.5655 7827312
-0.86900002 0.12400001 1.5685 10331038
-0.80300003 0.126 1.5650001 4210489
-0.88600004 0.134 1.5615001 5856856
-0.87300003 0.134 1.5670002 8289402
-0.81300002 0.133 1.5690001 10591895
-0.80100006 0.132 1.562 5592657
-0.78900003 0.132 1.5690001 5986902
-0.77000004 0.13800001 1.5610001 5657939
-0.76300001 0.13800001 1.5640001 5657939
-0.75600004 0.13800001 1.5650001 5526353
-0.745 0.13800001 1.566 5657169
-0.73300004 0.13700001 1.5650001 5460817
-0.72500002 0.13700001 1.5650001 5658197
-0.71800005 0.13700001 1.5660001 5789269
