# .PCD v0.7 - Point Cloud Data file format
VERSION 0.7
FIELDS x y z rgb
SIZE 4 4 4 4
TYPE F F F U
COUNT 1 1 1 1
WIDTH 1210
HEIGHT 1
VIEWPOINT 0 0 0 1 0 0 0
POINTS 1210
DATA ascii
0.024 0.16800001 0.82600003 9000787
0.027000001 0.16800001 0.82500005 9066323
0.030000001 0.16800001 0.82300001 8539722
0.033 0.16700001 0.82200003 8605260
0.037 0.16700001 0.82100004 8803152
0.040000003 0.16700001 0.82100004 9000530
0.043000001 0.16700001 0.81900007 8145222
0.046000004 0.16700001 0.81900007 8276807
0.050000001 0.16700001 0.81900007 8408134
0.053000003 0.16700001 0.81800002 9131600
0.056000002 0.16700001 0.81800002 9526099
0.060000002 0.16700001 0.81900007 8737613
0.063000001 0.16700001 0.81900007 7357510
0.066 0.16700001 0.82000005 4535872
0.07 0.16700001 0.82000005 5061957
0.073000006 0.16800001 0.82100004 7882823
0.077000007 0.16800001 0.82200003 9001556
0.080000006 0.16800001 0.82200003 9265239
0.083000004 0.16800001 0.82300001 8738642
0.087000005 0.16800001 0.82400006 8870486
0.090000004 0.16900001 0.82600003 9002071
0.094000004 0.16900001 0.82800007 8739157
0.098000005 0.17 0.83100003 8804951
0.101 0.171 0.83400005 9200481
0.105 0.171 0.83700001 9069153
0.109 0.17200001 0.84000003 6767941
0.11300001 0.17300001 0.84300005 8282208
0.116 0.17300001 0.84400004 8612460
0.12 0.17300001 0.84600002 13683410
-0.024 0.17900001 0.86000001 6908020
-0.020000001 0.178 0.85500002 8220537
-0.017000001 0.177 0.85100001 8542815
-0.013 0.17600001 0.84700006 9132384
-0.010000001 0.17500001 0.84400004 8737620
-0.0070000002 0.17500001 0.84200007 9657691
-0.003 0.17500001 0.84000003 9459804
0 0.17400001 0.83600003 6964037
0.0040000002 0.17300001 0.83300006 5121841
0.0070000002 0.17200001 0.83000004 6767169
0.010000001 0.17200001 0.82700002 9395802
0.014 0.17200001 0.82600003 9723741
0.017000001 0.171 0.82400006 9658460
0.020000001 0.171 0.82300001 9526360
0.023000002 0.171 0.82100004 9460567
0.027000001 0.17 0.82000005 9262674
0.030000001 0.17 0.81900007 9196880
0.033 0.17 0.81800002 8934223
0.037 0.17 0.81800002 9460052
0.040000003 0.17 0.81800002 9000014
0.043000001 0.17 0.81700003 9131085
0.046000004 0.17 0.81600004 9131089
0.050000001 0.17 0.81500006 9065296
0.053000003 0.17 0.81500006 9394260
0.056000002 0.16900001 0.81400001 9525075
0.059000004 0.16900001 0.81400001 8407364
0.063000001 0.16900001 0.81400001 7291202
0.066 0.17 0.81500006 3880253
0.069000006 0.17 0.81500006 5521222
0.073000006 0.17 0.81600004 7750977
0.076000005 0.17 0.81600004 8935505
0.079000004 0.17 0.81700003 9330258
0.083000004 0.171 0.81800002 8541005
0.086000003 0.171 0.81900007 8474956
0.090000004 0.171 0.82000005 9067093
0.093000002 0.17200001 0.82200003 8606799
0.097000003 0.17200001 0.82500005 8541007
0.101 0.17300001 0.82800007 8672592
0.105 0.17400001 0.83100003 8673364
0.108 0.17400001 0.83400005 9134945
0.112 0.17500001 0.83700001 6373184
0.116 0.17500001 0.83900005 7163986
0.12 0.17600001 0.84200007 8349287
0.123 0.17600001 0.84300005 9275017
-0.027000001 0.18200001 0.85900003 6316399
-0.024 0.18100001 0.85400003 7889252
-0.020000001 0.18000001 0.85000002 8739416
-0.017000001 0.17900001 0.84600002 8935510
-0.013 0.178 0.84200007 8672854
-0.010000001 0.178 0.83900005 9395801
-0.0060000001 0.177 0.83700001 8804694
-0.003 0.177 0.83400005 6241084
0 0.17600001 0.83000004 4925485
0.0040000002 0.17500001 0.82600003 6504511
0.0070000002 0.17500001 0.82400006 9328985
0.010000001 0.17400001 0.82200003 9263186
0.013 0.17400001 0.82100004 9328725
0.017000001 0.17400001 0.82000005 5912886
0.020000001 0.17300001 0.81800002 5649203
0.023000002 0.17300001 0.81700003 6239792
0.027000001 0.17300001 0.81600004 9395282
0.030000001 0.17300001 0.81400001 8999762
0.033 0.17200001 0.81300002 8342344
0.036000002 0.17200001 0.81300002 9263185
0.040000003 0.17200001 0.81300002 9262414
0.043000001 0.17200001 0.81300002 9065295
0.046000004 0.17200001 0.81200004 8867661
0.049000002 0.17200001 0.81100005 6369833
0.053000003 0.17200001 0.81100005 7225399
0.056000002 0.17200001 0.81000006 8802382
0.059000004 0.17200001 0.81000006 7683899
0.062000003 0.17200001 0.81000006 6962748
0.066 0.17200001 0.81000006 3616056
0.069000006 0.17200001 0.81100005 6308422
0.072000004 0.17300001 0.81200004 7421498
0.076000005 0.17300001 0.81200004 8934476
0.079000004 0.17300001 0.81200004 9460814
0.082000002 0.17300001 0.81300002 9197645
0.086000003 0.17300001 0.81400001 8737097
0.089000002 0.17400001 0.81600004 9132369
0.093000002 0.17400001 0.81700003 9329749
0.096000001 0.17500001 0.82000005 8803663
0.1 0.17500001 0.82200003 8672078
0.104 0.17600001 0.82500005 8737871
0.108 0.17600001 0.82800007 9002328
0.112 0.177 0.83200002 9200481
0.115 0.178 0.83400005 6635581
0.119 0.17900001 0.83700001 7295312
0.123 0.17900001 0.83900005 9135204
0.126 0.17900001 0.83900005 8281700
-0.031000001 0.185 0.85600007 7762553
-0.027000001 0.18400002 0.85300004 8281694
-0.024 0.18300001 0.84800005 8345171
-0.020000001 0.18200001 0.84400004 8672337
-0.017000001 0.18200001 0.84000003 8869719
-0.013 0.18100001 0.83800006 9198938
-0.010000001 0.18000001 0.83400005 8869972
-0.0060000001 0.18000001 0.83100003 6437696
-0.003 0.17900001 0.82700002 5122095
0 0.178 0.82400006 6306623
0.0040000002 0.177 0.82000005 8542550
0.0070000002 0.177 0.81800002 9262675
0.010000001 0.177 0.81800002 8804177
0.013 0.177 0.81700003 8541781
0.017000001 0.17600001 0.81600004 3876134
0.020000001 0.17600001 0.81400001 4336686
0.023000002 0.17500001 0.81200004 7228235
0.026000001 0.17500001 0.81000006 8805462
0.030000001 0.17500001 0.80900002 5321000
0.033 0.17500001 0.80800003 3087398
0.036000002 0.17500001 0.80800003 2564131
0.039000001 0.17500001 0.80800003 2695205
0.043000001 0.17500001 0.80700004 3351083
0.046000004 0.17500001 0.80700004 4928052
0.049000002 0.17500001 0.80700004 6571075
0.052000001 0.17400001 0.80600005 8345169
0.055000003 0.17400001 0.80500007 9198163
0.059000004 0.17400001 0.80500007 7619648
0.062000003 0.17400001 0.80600005 6963520
0.065000005 0.17500001 0.80600005 3418165
0.069000006 0.17500001 0.80700004 6766405
0.072000004 0.17500001 0.80700004 7420984
0.075000003 0.17500001 0.80700004 9000264
0.079000004 0.17500001 0.80800003 9328971
0.082000002 0.17500001 0.80900002 9393995
0.085000001 0.17600001 0.81000006 9065289
0.089000002 0.17600001 0.81100005 9065547
0.092000008 0.17600001 0.81300002 9460563
0.096000001 0.177 0.81500006 8934219
0.1 0.178 0.81800002 9263697
0.10300001 0.178 0.82000005 8342341
0.10700001 0.17900001 0.82300001 8737615
0.11100001 0.18000001 0.82600003 9462622
0.115 0.18000001 0.82900006 8936537
0.11800001 0.18100001 0.83200002 6372153
0.12200001 0.18200001 0.83500004 7819604
0.126 0.18200001 0.83600003 9134176
0.12900001 0.18200001 0.83600003 8085603
-0.034000002 0.18800001 0.85500002 7631482
-0.031000001 0.18700001 0.85100001 8215903
-0.027000001 0.18700001 0.84800005 8606804
-0.024 0.186 0.84300005 8212045
-0.020000001 0.185 0.83900005 8738133
-0.017000001 0.18400002 0.83600003 9132890
-0.013 0.18300001 0.83300006 9198169
-0.010000001 0.18300001 0.82900006 7292487
-0.0060000001 0.18200001 0.82600003 5517367
-0.003 0.18100001 0.82200003 6306625
0 0.18000001 0.81800002 8936541
0.0040000002 0.18000001 0.81600004 8739411
0.0070000002 0.17900001 0.81400001 9263188
0.010000001 0.17900001 0.81300002 9263954
0.013 0.17900001 0.81300002 6701379
0.017000001 0.17900001 0.81200004 4138797
0.020000001 0.178 0.81000006 8870743
0.023000002 0.178 0.80900002 9198164
0.026000001 0.178 0.80800003 8869458
0.030000001 0.178 0.80600005 4203295
0.033 0.177 0.80500007 4469817
0.036000002 0.177 0.80400002 3613995
0.039000001 0.177 0.80400002 2695976
0.042000003 0.177 0.80300003 3088680
0.046000004 0.177 0.80300003 3088426
0.049000002 0.177 0.80300003 4993844
0.052000001 0.177 0.80200005 9001037
0.055000003 0.177 0.80200005 8671559
0.059000004 0.177 0.80200005 7553598
0.062000003 0.177 0.80200005 5255481
0.065000005 0.177 0.80200005 3221044
0.068000004 0.177 0.80300003 6764600
0.072000004 0.177 0.80300003 7880501
0.075000003 0.177 0.80300003 9065289
0.078000002 0.178 0.80400002 9393996
0.082000002 0.178 0.80400002 8603966
0.085000001 0.178 0.80600005 9196618
0.088000007 0.178 0.80700004 8933190
0.092000008 0.17900001 0.80900002 9525584
0.095000006 0.17900001 0.81000006 9065544
0.099000007 0.18000001 0.81300002 9130568
0.10300001 0.18000001 0.81500006 8670534
0.10600001 0.18100001 0.81800002 8539463
0.11000001 0.18200001 0.82100004 8935248
0.11400001 0.18200001 0.82300001 9461850
0.11800001 0.18300001 0.82700002 7884879
0.12100001 0.18400002 0.82900006 5780533
0.125 0.185 0.83200002 7885394
0.12900001 0.185 0.83500004 9134173
0.133 0.186 0.83700001 8544090
0.13600001 0.186 0.83500004 3812393
-0.038000003 0.192 0.85500002 6907506
-0.034000002 0.19100001 0.85100001 8150104
-0.030000001 0.19000001 0.84700006 8343631
-0.027000001 0.18900001 0.84200007 8671573
-0.023000002 0.18800001 0.83800006 8869205
-0.020000001 0.18700001 0.83500004 8803154
-0.016000001 0.186 0.83100003 9264217
-0.013 0.186 0.82800007 7619908
-0.010000001 0.185 0.82400006 5583156
-0.0060000001 0.18400002 0.82100004 5452601
-0.003 0.18300001 0.81700003 7950161
0 0.18300001 0.81400001 9395802
0.0040000002 0.18200001 0.81200004 9395288
0.0070000002 0.18200001 0.81000006 9525592
0.010000001 0.18200001 0.80900002 9396053
0.013 0.18100001 0.80800003 5057838
0.017000001 0.18100001 0.80700004 3680556
0.020000001 0.18100001 0.80600005 9002071
0.023000002 0.18100001 0.80600005 9329236
0.026000001 0.18100001 0.80500007 9001553
0.029000001 0.18000001 0.80300003 8738131
0.033 0.18000001 0.80200005 8869969
0.036000002 0.18000001 0.80100006 8608078
0.039000001 0.18000001 0.80000001 8869969
0.042000003 0.17900001 0.79900002 6177601
0.045000002 0.17900001 0.79800004 3549488
0.049000002 0.17900001 0.79800004 9068889
0.052000001 0.17900001 0.79800004 8736843
0.055000003 0.17900001 0.79800004 8277572
0.058000002 0.17900001 0.79800004 7028534
0.062000003 0.17900001 0.79800004 4401712
0.065000005 0.17900001 0.79800004 3155248
0.068000004 0.18000001 0.79900002 7027773
0.071000002 0.18000001 0.79900002 7683639
0.075000003 0.18000001 0.79900002 9327692
0.078000002 0.18000001 0.80000001 9130569
0.081 0.18000001 0.80000001 8998982
0.085000001 0.18100001 0.80200005 8537915
0.088000007 0.18100001 0.80300003 8801602
0.092000008 0.18100001 0.80500007 9064516
0.095000006 0.18200001 0.80600005 8933444
0.099000007 0.18200001 0.80900002 8407614
0.10200001 0.18300001 0.81100005 8670018
0.10600001 0.18400002 0.81400001 8801605
0.11000001 0.18400002 0.81600004 9065805
0.11300001 0.185 0.81800002 8934477
0.11700001 0.185 0.82100004 9134169
0.12100001 0.186 0.82400006 6767168
0.125 0.18700001 0.82800007 6505285
0.12900001 0.18800001 0.83200002 8608601
0.133 0.18900001 0.83500004 8674136
0.13700001 0.18900001 0.83700001 8807004
0.14 0.19000001 0.83700001 6378326
-0.041000001 0.19500001 0.85400003 6053995
-0.037 0.19400001 0.85000002 8414053
-0.034000002 0.193 0.84600002 8605775
-0.030000001 0.193 0.84200007 8606545
-0.027000001 0.192 0.83800006 8080457
-0.023000002 0.19100001 0.83400005 8343114
-0.020000001 0.19000001 0.83100003 9132885
-0.016000001 0.18900001 0.82800007 8343120
-0.013 0.18800001 0.82400006 5977914
-0.010000001 0.18700001 0.82000005 4663342
-0.0060000001 0.18700001 0.81600004 7490892
-0.003 0.186 0.81200004 9132629
0 0.185 0.81000006 9394259
0.0040000002 0.185 0.80800003 9264465
0.0070000002 0.18400002 0.80700004 9328726
0.010000001 0.18400002 0.80500007 9329749
0.013 0.18400002 0.80500007 7030082
0.016000001 0.18400002 0.80400002 3153697
0.020000001 0.18400002 0.80300003 3483438
0.023000002 0.18300001 0.80200005 3878452
0.026000001 0.18300001 0.80100006 5782332
0.029000001 0.18300001 0.79900002 6899786
0.032000002 0.18200001 0.79800004 7689039
0.036000002 0.18200001 0.79700005 7820113
0.039000001 0.18200001 0.79600006 6570559
0.042000003 0.18200001 0.79500002 4532520
0.045000002 0.18200001 0.79400003 7556424
0.048 0.18200001 0.79400003 9263187
0.052000001 0.18200001 0.79400003 9459532
0.055000003 0.18200001 0.79400003 8474695
0.058000002 0.18200001 0.79500002 7487292
0.061000004 0.18200001 0.79500002 3681076
0.065000005 0.18200001 0.79500002 2894383
0.068000004 0.18200001 0.79500002 7027253
0.071000002 0.18200001 0.79600006 8406844
0.074000001 0.18200001 0.79600006 9196103
0.078000002 0.18300001 0.79600006 9261898
0.081 0.18300001 0.79700005 9195592
0.084000006 0.18300001 0.79800004 8275004
0.088000007 0.18300001 0.79900002 8866627
0.091000006 0.18400002 0.80100006 8801091
0.095000006 0.18400002 0.80200005 8603712
0.098000005 0.185 0.80500007 8537661
0.10200001 0.185 0.80700004 8669245
0.105 0.186 0.80900002 8537660
0.109 0.186 0.81100005 8998725
0.11300001 0.18700001 0.81300002 8735298
0.116 0.18800001 0.81600004 9263956
0.12 0.18900001 0.81900007 8740186
0.12400001 0.19000001 0.82300001 6044477
0.12800001 0.19100001 0.82800007 7162959
0.132 0.192 0.83200002 9003099
0.13600001 0.193 0.83500004 8411218
0.14 0.193 0.83600003 7821913
-0.045000002 0.19900002 0.85400003 5527652
-0.041000001 0.19800001 0.85000002 7692122
-0.037 0.19700001 0.84600002 8674394
-0.034000002 0.19600001 0.84200007 8539982
-0.030000001 0.19500001 0.83700001 8606029
-0.027000001 0.19400001 0.83200002 8146249
-0.023000002 0.193 0.82900006 9329751
-0.020000001 0.192 0.82600003 9066578
-0.016000001 0.192 0.82300001 6503742
-0.013 0.19100001 0.81900007 4532268
-0.010000001 0.19000001 0.81500006 6373439
-0.0060000001 0.18900001 0.81100005 9000786
-0.003 0.18800001 0.80800003 9262932
0 0.18800001 0.80600005 9197135
0.0040000002 0.18700001 0.80400002 8672073
0.0070000002 0.18700001 0.80300003 9327181
0.010000001 0.18700001 0.80200005 9394772
0.013 0.186 0.80100006 8805461
0.016000001 0.186 0.80000001 5916739
0.020000001 0.186 0.79900002 3221028
0.023000002 0.186 0.79800004 3154990
0.026000001 0.186 0.79800004 2957869
0.029000001 0.186 0.79700005 3220007
0.032000002 0.185 0.79500002 3352366
0.036000002 0.185 0.79400003 3286827
0.039000001 0.185 0.79300004 4009009
0.042000003 0.185 0.79200006 7424841
0.045000002 0.18400002 0.79100001 9394252
0.048 0.185 0.79200006 9394508
0.051000003 0.18400002 0.79100001 8868939
0.055000003 0.18400002 0.79100001 9063234
0.058000002 0.185 0.79200006 7224120
0.061000004 0.185 0.79200006 3287088
0.064000003 0.185 0.79200006 3222579
0.068000004 0.185 0.79200006 7356218
0.071000002 0.185 0.79200006 9260871
0.074000001 0.185 0.79200006 9458762
0.077000007 0.185 0.79300004 9786957
0.081 0.185 0.79300004 8603453
0.084000006 0.185 0.79400003 8603197
0.087000005 0.186 0.79500002 8208952
0.091000006 0.186 0.79700005 9261383
0.094000004 0.18700001 0.79800004 8735297
0.098000005 0.18700001 0.80000001 8866882
0.101 0.18800001 0.80200005 8998469
0.105 0.18800001 0.80400002 8998727
0.108 0.18900001 0.80600005 8866884
0.112 0.18900001 0.80900002 9130570
0.116 0.19000001 0.81100005 9000528
0.119 0.19100001 0.81400001 9396571
0.123 0.192 0.81800002 7292742
0.12800001 0.193 0.82300001 5848642
0.132 0.19400001 0.82800007 8214613
0.13600001 0.19500001 0.83200002 8805205
0.14 0.19600001 0.83400005 8542546
0.14300001 0.19600001 0.83500004 6506568
-0.044000003 0.20200001 0.85000002 6641759
-0.041000001 0.20100001 0.84600002 9067608
-0.037 0.2 0.84200007 8803922
-0.034000002 0.19800001 0.83700001 9000531
-0.030000001 0.19700001 0.83300006 8671566
-0.027000001 0.19600001 0.82800007 8540493
-0.023000002 0.19600001 0.82500005 9197393
-0.020000001 0.19500001 0.82300001 7160127
-0.016000001 0.19400001 0.81900007 5189686
-0.013 0.193 0.81500006 5716027
-0.010000001 0.192 0.81100005 8212811
-0.0060000001 0.19100001 0.80800003 9131346
-0.003 0.19100001 0.80500007 9131601
0 0.19000001 0.80300003 8736328
0.003 0.19000001 0.80100006 9130317
0.0070000002 0.19000001 0.80000001 9000012
0.010000001 0.18900001 0.79800004 6240310
0.013 0.18900001 0.79700005 4598062
0.016000001 0.18900001 0.79600006 7625564
0.020000001 0.18800001 0.79500002 7824228
0.023000002 0.18800001 0.79400003 6575448
0.026000001 0.18800001 0.79400003 5851727
0.029000001 0.18800001 0.79400003 6113868
0.032000002 0.18800001 0.79200006 7098702
0.035 0.18800001 0.79100001 8147787
0.039000001 0.18700001 0.79000002 9262410
0.042000003 0.18700001 0.78900003 9327693
0.045000002 0.18700001 0.78800005 9393739
0.048 0.18700001 0.78900003 9327946
0.051000003 0.18700001 0.78900003 8868167
0.055000003 0.18700001 0.78900003 8078651
0.058000002 0.18700001 0.78900003 7487292
0.061000004 0.18800001 0.79000002 3222579
0.064000003 0.18700001 0.78900003 3681846
0.067000002 0.18800001 0.79000002 7618361
0.071000002 0.18700001 0.78900003 9195333
0.074000001 0.18700001 0.78900003 9853003
0.077000007 0.18800001 0.79000002 9129541
0.080000006 0.18800001 0.79000002 8603457
0.084000006 0.18800001 0.79100001 8603712
0.087000005 0.18800001 0.79200006 8932677
0.090000004 0.18900001 0.79300004 8669248
0.094000004 0.18900001 0.79500002 8800834
0.097000003 0.19000001 0.79600006 8801091
0.101 0.19000001 0.79800004 8801091
0.104 0.19100001 0.80000001 9130058
0.108 0.19100001 0.80200005 9196621
0.11100001 0.192 0.80400002 9065292
0.115 0.193 0.80700004 8736842
0.119 0.193 0.80900002 8934222
0.123 0.19400001 0.81300002 9264211
0.127 0.19500001 0.81800002 6372929
0.13100001 0.19700001 0.82300001 7227725
0.13500001 0.19800001 0.82800007 9132374
0.13900001 0.19900002 0.83100003 8672849
0.14300001 0.19900002 0.83300006 8148560
0.147 0.2 0.83400005 3087641
-0.048 0.20500001 0.84900004 5196882
-0.044000003 0.20400001 0.84600002 8740186
-0.041000001 0.20300001 0.84200007 9132374
-0.037 0.20200001 0.83800006 8934480
-0.033 0.20100001 0.83300006 8408393
-0.030000001 0.2 0.82800007 8407877
-0.026000001 0.19900002 0.82400006 9066577
-0.023000002 0.19800001 0.82100004 8738382
-0.020000001 0.19700001 0.81800002 6306625
-0.016000001 0.19600001 0.81400001 4466989
-0.013 0.19500001 0.81000006 7096132
-0.010000001 0.19400001 0.80600005 9131600
-0.0060000001 0.19400001 0.80400002 9262160
-0.003 0.193 0.80100006 9196622
0 0.193 0.80000001 9131341
0.003 0.192 0.79800004 9130574
0.0070000002 0.192 0.79700005 8934474
0.010000001 0.192 0.79500002 4466467
0.013 0.192 0.79500002 3416617
0.016000001 0.19100001 0.79400003 3612963
0.020000001 0.19100001 0.79300004 3218719
0.023000002 0.19100001 0.79200006 3154470
0.026000001 0.19100001 0.79100001 3942445
0.029000001 0.19100001 0.79000002 4337203
0.032000002 0.19000001 0.78900003 5913661
0.035 0.19000001 0.78800005 7489604
0.038000003 0.19000001 0.78700006 8934984
0.042000003 0.19000001 0.78600001 9000007
0.045000002 0.19000001 0.78600001 9196613
0.048 0.19000001 0.78600001 9196359
0.051000003 0.19000001 0.78600001 9197130
0.054000001 0.19000001 0.78600001 7947068
0.058000002 0.19000001 0.78600001 7225147
0.061000004 0.19000001 0.78600001 3747385
0.064000003 0.19000001 0.78600001 4534074
0.067000002 0.19000001 0.78600001 7619392
0.07 0.19000001 0.78600001 9524040
0.074000001 0.19000001 0.78600001 9524299
0.077000007 0.19000001 0.78700006 9458761
0.080000006 0.19000001 0.78700006 9261640
0.083000004 0.19100001 0.78800005 8669503
0.087000005 0.19100001 0.78900003 8931907
0.090000004 0.19100001 0.79000002 8669248
0.094000004 0.192 0.79200006 9261642
0.097000003 0.192 0.79300004 9327435
0.1 0.193 0.79500002 9393230
0.104 0.193 0.79700005 8867399
0.108 0.19400001 0.79900002 9130828
0.11100001 0.19400001 0.80100006 9131086
0.115 0.19500001 0.80300003 8735559
0.11800001 0.19600001 0.80600005 9131085
0.12200001 0.19700001 0.80900002 9131602
0.126 0.19800001 0.81300002 8014919
0.13000001 0.19900002 0.81800002 6111044
0.13500001 0.2 0.82400006 8344399
0.13900001 0.20100001 0.82700002 9132119
0.14300001 0.20200001 0.83000004 8279121
0.14600001 0.20200001 0.83100003 8148302
0.15000001 0.20300001 0.83400005 2693657
-0.048 0.208 0.84600002 7626075
-0.044000003 0.20700002 0.84200007 9065552
-0.040000003 0.20600002 0.83800006 8868431
-0.037 0.20500001 0.83300006 8605259
-0.033 0.20300001 0.82800007 8605258
-0.030000001 0.20200001 0.82300001 8671051
-0.026000001 0.20100001 0.82000005 9000016
-0.023000002 0.2 0.81700003 7685696
-0.020000001 0.2 0.81400001 4466990
-0.016000001 0.19900002 0.81000006 5913917
-0.013 0.19800001 0.80600005 8278347
-0.0090000005 0.19700001 0.80300003 9197645
-0.0060000001 0.19700001 0.80100006 9197391
-0.003 0.19600001 0.79800004 8934733
0 0.19600001 0.79700005 8540490
0.003 0.19500001 0.79500002 9000271
0.0070000002 0.19500001 0.79400003 8606283
0.010000001 0.19500001 0.79300004 8277832
0.013 0.19500001 0.79300004 8344139
0.016000001 0.19400001 0.79100001 8410446
0.019000001 0.19400001 0.78900003 8674902
0.023000002 0.193 0.78800005 7820629
0.026000001 0.193 0.78700006 5194826
0.029000001 0.193 0.78500003 3352371
0.032000002 0.193 0.78500003 3549233
0.035 0.192 0.78400004 3551032
0.038000003 0.192 0.78400004 8802892
0.041000001 0.192 0.78300005 9130310
0.045000002 0.192 0.78300005 9064774
0.048 0.192 0.78300005 9590602
0.051000003 0.192 0.78300005 9525068
0.054000001 0.192 0.78300005 7684670
0.057000004 0.192 0.78300005 6372930
0.061000004 0.193 0.78400004 3486003
0.064000003 0.193 0.78400004 5913921
0.067000002 0.193 0.78400004 7552827
0.07 0.193 0.78400004 9260868
0.073000006 0.193 0.78300005 9261125
0.077000007 0.193 0.78400004 9458761
0.080000006 0.193 0.78500003 9392968
0.083000004 0.193 0.78500003 8603453
0.087000005 0.19400001 0.78700006 8537660
0.090000004 0.19400001 0.78800005 8735039
0.093000002 0.19400001 0.78900003 8669759
0.097000003 0.19500001 0.79000002 9261896
0.1 0.19500001 0.79200006 8669505
0.104 0.19600001 0.79300004 8866884
0.10700001 0.19600001 0.79500002 9064776
0.11100001 0.19700001 0.79700005 8669507
0.11400001 0.19800001 0.80000001 9064775
0.11800001 0.19800001 0.80300003 9262671
0.12200001 0.19900002 0.80500007 9065804
0.126 0.2 0.80900002 8803661
0.13000001 0.20100001 0.81300002 5650490
0.134 0.20300001 0.81900007 7359306
0.13800001 0.20400001 0.82300001 9263702
0.142 0.20500001 0.82700002 8541005
0.14600001 0.20500001 0.82900006 8738384
0.15000001 0.20600002 0.83200002 7098190
-0.051000003 0.21200001 0.84700006 5984598
-0.048 0.21000001 0.84200007 8870740
-0.044000003 0.21000001 0.83900005 8933968
-0.040000003 0.208 0.83400005 8868430
-0.037 0.20700002 0.82900006 8539722
-0.033 0.20600002 0.82400006 8671051
-0.030000001 0.20500001 0.82000005 8737359
-0.026000001 0.20400001 0.81600004 8408393
-0.023000002 0.20300001 0.81400001 6241596
-0.019000001 0.20200001 0.81000006 4993847
-0.016000001 0.20100001 0.80500007 7226949
-0.013 0.2 0.80200005 8869707
-0.0090000005 0.2 0.80000001 8934989
-0.0060000001 0.19900002 0.79800004 8935244
-0.003 0.19900002 0.79600006 8408902
0 0.19800001 0.79400003 8540230
0.003 0.19800001 0.79300004 8737868
0.0070000002 0.19800001 0.79200006 8539976
0.010000001 0.19700001 0.79000002 7424064
0.013 0.19700001 0.79100001 5519157
0.016000001 0.19700001 0.78900003 3680811
0.019000001 0.19600001 0.78700006 3287089
0.023000002 0.19600001 0.78600001 3352880
0.026000001 0.19600001 0.78500003 3351853
0.029000001 0.19500001 0.78300005 3090739
0.032000002 0.19500001 0.78200006 3615795
0.035 0.19500001 0.78100002 5453878
0.038000003 0.19500001 0.78100002 8409156
0.041000001 0.19500001 0.78100002 9262156
0.045000002 0.19500001 0.78000003 9261894
0.048 0.19500001 0.78000003 9393481
0.051000003 0.19500001 0.78000003 9064518
0.054000001 0.19500001 0.78000003 7881792
0.057000004 0.19500001 0.78000003 5716798
0.060000002 0.19500001 0.78100002 4011836
0.064000003 0.19500001 0.78100002 7095365
0.067000002 0.19500001 0.78100002 7356219
0.07 0.19500001 0.78100002 8800831
0.073000006 0.19500001 0.78100002 9129797
0.076000005 0.19600001 0.78100002 9129798
0.080000006 0.19600001 0.78200006 8801345
0.083000004 0.19600001 0.78300005 8471870
0.086000003 0.19600001 0.78400004 8603453
0.090000004 0.19700001 0.78500003 8471867
0.093000002 0.19700001 0.78600001 8471867
0.096000001 0.19700001 0.78700006 8735039
0.1 0.19800001 0.78900003 7813937
0.10300001 0.19800001 0.79000002 8538173
0.10700001 0.19900002 0.79200006 8537660
0.11000001 0.19900002 0.79400003 8998724
0.11400001 0.2 0.79700005 8867140
0.11800001 0.20100001 0.80000001 9328206
0.12100001 0.20200001 0.80200005 9196878
0.125 0.20300001 0.80500007 9263441
0.12900001 0.20400001 0.80900002 6308417
0.133 0.20500001 0.81500006 5980227
0.13800001 0.20600002 0.81900007 8738384
0.142 0.208 0.82400006 8934985
0.14600001 0.208 0.82600003 8278863
0.15000001 0.20900001 0.82900006 8213325
0.15400001 0.21000001 0.83200002 2956316
-0.051000003 0.21400002 0.84300005 8150359
-0.047000002 0.21300001 0.83900005 9000790
-0.044000003 0.21200001 0.83400005 9131089
-0.040000003 0.21100001 0.82900006 8933966
-0.036000002 0.20900001 0.82400006 8605258
-0.033 0.208 0.81900007 8539980
-0.030000001 0.20700002 0.81600004 8803152
-0.026000001 0.20600002 0.81300002 7487805
-0.023000002 0.20600002 0.81000006 4993589
-0.019000001 0.20500001 0.80600005 6111811
-0.016000001 0.20400001 0.80200005 8343885
-0.013 0.20300001 0.79900002 9131598
-0.0090000005 0.20200001 0.79700005 9131852
-0.0060000001 0.20200001 0.79500002 8934219
-0.003 0.20100001 0.79300004 8803403
0 0.20100001 0.79100001 8408647
0.003 0.2 0.79000002 8736839
0.0070000002 0.2 0.78900003 5649710
0.010000001 0.2 0.78700006 2956841
0.013 0.2 0.78700006 3417906
0.016000001 0.19900002 0.78500003 3286316
0.019000001 0.19900002 0.78300005 3681075
0.022000002 0.19900002 0.78300005 5981258
0.026000001 0.19900002 0.78200006 7359817
0.029000001 0.19800001 0.78000003 8477003
0.032000002 0.19800001 0.77900004 8410442
0.035 0.19800001 0.77900004 8672326
0.038000003 0.19800001 0.77800006 8999494
0.041000001 0.19800001 0.77800006 8539202
0.044000003 0.19800001 0.77800006 9393222
0.048 0.19800001 0.77800006 9196102
0.051000003 0.19800001 0.77800006 8933192
0.054000001 0.19800001 0.77800006 7881535
0.057000004 0.19800001 0.77800006 4665146
0.060000002 0.19800001 0.77900004 3484984
0.063000001 0.19800001 0.77800006 7817799
0.067000002 0.19800001 0.77800006 8012866
0.07 0.19800001 0.77800006 9129539
0.073000006 0.19800001 0.77800006 9590090
0.076000005 0.19800001 0.77900004 9261383
0.080000006 0.19900002 0.78000003 8801091
0.083000004 0.19900002 0.78000003 8537917
0.086000003 0.19900002 0.78200006 8866625
0.089000002 0.2 0.78300005 8208697
0.093000002 0.2 0.78400004 9064006
0.096000001 0.2 0.78500003 8537661
0.1 0.20100001 0.78600001 8471867
0.10300001 0.20100001 0.78800005 8406333
0.10700001 0.20200001 0.79000002 8801604
0.11000001 0.20200001 0.79200006 8998985
0.11400001 0.20300001 0.79400003 8802375
0.11700001 0.20400001 0.79700005 8473667
0.12100001 0.20400001 0.79900002 8539461
0.125 0.20500001 0.80100006 8934477
0.12900001 0.20600002 0.80500007 7883846
0.133 0.208 0.81100005 5060672
0.13700001 0.20900001 0.81600004 7620678
0.141 0.21000001 0.82100004 9001300
0.14500001 0.21100001 0.82300001 8342858
0.149 0.21200001 0.82600003 8409933
0.15300001 0.21300001 0.82900006 7755091
-0.055000003 0.21800001 0.84300005 4998220
-0.051000003 0.21700001 0.83900005 9066316
-0.047000002 0.21600001 0.83500004 8672082
-0.044000003 0.215 0.83100003 8736330
-0.040000003 0.21300001 0.82500005 8670794
-0.036000002 0.21200001 0.82000005 8802124
-0.033 0.21100001 0.81600004 9197395
-0.029000001 0.21000001 0.81300002 8867917
-0.026000001 0.20900001 0.81000006 6176832
-0.023000002 0.208 0.80600005 4994102
-0.019000001 0.20700002 0.80200005 6965061
-0.016000001 0.20600002 0.79800004 8933454
-0.013 0.20500001 0.79600006 8802382
-0.0090000005 0.20500001 0.79400003 8736840
-0.0060000001 0.20400001 0.79200006 8473672
-0.003 0.20400001 0.79000002 8408647
0 0.20400001 0.78900003 8671564
0.003 0.20300001 0.78800005 8539209
0.0070000002 0.20300001 0.78600001 4335656
0.010000001 0.20300001 0.78500003 2892844
0.013 0.20200001 0.78400004 3220272
0.016000001 0.20200001 0.78200006 3417134
0.019000001 0.20200001 0.78100002 3876658
0.022000002 0.20100001 0.78000003 5453362
0.026000001 0.20100001 0.77900004 6833731
0.029000001 0.20100001 0.77800006 6767682
0.032000002 0.20100001 0.77700001 5582119
0.035 0.2 0.77600002 9065805
0.038000003 0.2 0.77600002 8735812
0.041000001 0.2 0.77600002 8670272
0.044000003 0.2 0.77600002 8933955
0.047000002 0.2 0.77500004 8802630
0.051000003 0.2 0.77600002 8539460
0.054000001 0.20100001 0.77600002 8143942
0.057000004 0.20100001 0.77600002 4075581
0.060000002 0.20100001 0.77600002 3549241
0.063000001 0.20100001 0.77600002 7685702
0.066 0.2 0.77500004 8406848
0.07 0.2 0.77500004 9326917
0.073000006 0.20100001 0.77500004 9655368
0.076000005 0.20100001 0.77600002 9524554
0.079000004 0.20100001 0.77700001 9129799
0.083000004 0.20100001 0.77800006 8340539
0.086000003 0.20200001 0.77900004 8603201
0.089000002 0.20200001 0.78000003 8735042
0.093000002 0.20200001 0.78100002 8735300
0.096000001 0.20300001 0.78300005 8735301
0.099000007 0.20300001 0.78400004 8143163
0.10300001 0.20400001 0.78500003 8801352
0.10600001 0.20400001 0.78700006 8538434
0.11000001 0.20500001 0.78900003 8670535
0.11300001 0.20500001 0.79100001 9064781
0.11700001 0.20600002 0.79300004 8209983
0.12100001 0.20700002 0.79600006 8144705
0.12400001 0.208 0.79800004 8934477
0.12800001 0.208 0.80100006 8080451
0.132 0.21000001 0.80600005 5716027
0.13600001 0.21100001 0.81100005 7227206
0.141 0.21300001 0.81700003 8672591
0.14500001 0.21400002 0.82100004 8474956
0.149 0.215 0.82300001 7686724
0.15300001 0.21600001 0.82700002 8016205
0.15700001 0.21700001 0.83000004 4072998
-0.054000001 0.22000001 0.83800006 8410960
-0.051000003 0.21900001 0.83500004 8999503
-0.047000002 0.21800001 0.83200002 8934738
-0.043000001 0.21700001 0.82700002 8737101
-0.040000003 0.215 0.82100004 8539980
-0.036000002 0.21400002 0.81600004 8605773
-0.033 0.21300001 0.81300002 8803152
-0.029000001 0.21300001 0.81000006 7618108
-0.026000001 0.21200001 0.80700004 5189682
-0.023000002 0.21100001 0.80300003 5781563
-0.019000001 0.21000001 0.79900002 8409681
-0.016000001 0.20900001 0.79500002 8803148
-0.013 0.208 0.79300004 8671560
-0.0090000005 0.20700002 0.79100001 8671051
-0.0060000001 0.20700002 0.79000002 7948096
-0.003 0.20700002 0.78800005 8737358
0 0.20600002 0.78700006 8934994
0.003 0.20600002 0.78500003 8737613
0.0070000002 0.20600002 0.78400004 7489347
0.010000001 0.20500001 0.78300005 8018005
0.013 0.20500001 0.78200006 8213578
0.016000001 0.20500001 0.78000003 8738131
0.019000001 0.20400001 0.77900004 8279890
0.022000002 0.20400001 0.77800006 5912633
0.025 0.20400001 0.77700001 4270642
0.029000001 0.20400001 0.77600002 4139568
0.032000002 0.20300001 0.77500004 7426124
0.035 0.20300001 0.77400005 9197646
0.038000003 0.20300001 0.77400005 9131342
0.041000001 0.20300001 0.77300006 9261383
0.044000003 0.20300001 0.77300006 8998466
0.047000002 0.20300001 0.77300006 8802635
0.051000003 0.20300001 0.77300006 7817023
0.054000001 0.20300001 0.77400005 7619399
0.057000004 0.20300001 0.77400005 4273471
0.060000002 0.20300001 0.77400005 4076610
0.063000001 0.20300001 0.77300006 7423039
0.066 0.20300001 0.77300006 9327438
0.069000006 0.20300001 0.77300006 9458762
0.073000006 0.20300001 0.77300006 9524556
0.076000005 0.20400001 0.77400005 9457993
0.079000004 0.20400001 0.77500004 9195592
0.082000002 0.20400001 0.77600002 9129288
0.086000003 0.20500001 0.77700001 9064006
0.089000002 0.20500001 0.77800006 8734787
0.092000008 0.20500001 0.77900004 8997959
0.096000001 0.20600002 0.78000003 8932166
0.099000007 0.20600002 0.78200006 8932679
0.10300001 0.20700002 0.78300005 8406335
0.10600001 0.20700002 0.78500003 8867399
0.11000001 0.208 0.78700006 8867143
0.11300001 0.208 0.78900003 8406591
0.11700001 0.20900001 0.79100001 8669766
0.12 0.21000001 0.79300004 8341571
0.12400001 0.21000001 0.79500002 8473414
0.12800001 0.21100001 0.79800004 8540235
0.132 0.21200001 0.80200005 6504507
0.13600001 0.21400002 0.80700004 6111296
0.14 0.215 0.81300002 8737611
0.14400001 0.21600001 0.81700003 8869968
0.148 0.21700001 0.82000005 8146245
0.15200001 0.21900001 0.82400006 8279375
0.15700001 0.22000001 0.82800007 8739410
-0.054000001 0.223 0.83500004 8933968
-0.050000001 0.22200002 0.83200002 8868175
-0.047000002 0.22100002 0.82900006 8736589
-0.043000001 0.22000001 0.82300001 8670796
-0.040000003 0.21800001 0.81800002 8670796
-0.036000002 0.21700001 0.81400001 9065809
-0.033 0.21600001 0.81100005 8211271
-0.029000001 0.215 0.80700004 7752263
-0.026000001 0.21400002 0.80400002 5059647
-0.022000002 0.21300001 0.79900002 6768708
-0.019000001 0.21200001 0.79500002 8671566
-0.016000001 0.21100001 0.79300004 8934991
-0.013 0.21100001 0.79000002 8605002
-0.0090000005 0.21000001 0.78900003 8539463
-0.0060000001 0.21000001 0.78700006 8540233
-0.003 0.20900001 0.78500003 8145475
0 0.20900001 0.78400004 8803662
0.003 0.20900001 0.78300005 7358017
0.0070000002 0.208 0.78200006 5518899
0.010000001 0.208 0.78000003 6636093
0.013 0.208 0.78000003 7884620
0.016000001 0.20700002 0.77800006 8474446
0.019000001 0.20700002 0.77700001 8475469
0.022000002 0.20700002 0.77700001 8738644
0.025 0.20700002 0.77600002 7884875
0.029000001 0.20600002 0.77400005 3877674
0.032000002 0.20600002 0.77300006 8279372
0.035 0.20600002 0.77200001 8541003
0.038000003 0.20600002 0.77200001 8408390
0.041000001 0.20600002 0.77100003 9459279
0.044000003 0.20600002 0.77100003 8671301
0.047000002 0.20600002 0.77100003 8211776
0.050000001 0.20600002 0.77100003 7619139
0.054000001 0.20600002 0.77100003 7752781
0.057000004 0.20600002 0.77100003 4535103
0.060000002 0.20600002 0.77100003 3879992
0.063000001 0.20600002 0.77100003 7357759
0.066 0.20600002 0.77100003 9589067
0.069000006 0.20600002 0.77100003 9392710
0.072000004 0.20600002 0.77100003 9392968
0.076000005 0.20600002 0.77100003 8932418
0.079000004 0.20600002 0.77200001 8537918
0.082000002 0.20700002 0.77300006 8801090
0.085000001 0.20700002 0.77400005 9129799
0.089000002 0.20700002 0.77500004 8866626
0.092000008 0.208 0.77700001 8603714
0.096000001 0.208 0.77800006 8866884
0.099000007 0.20900001 0.77900004 9064009
0.10200001 0.20900001 0.78100002 9195850
0.10600001 0.21000001 0.78200006 9130059
0.109 0.21100001 0.78500003 8735557
0.11300001 0.21100001 0.78600001 8998731
0.116 0.21200001 0.78800005 8998731
0.12 0.21200001 0.79100001 8670536
0.12400001 0.21300001 0.79300004 9064778
0.127 0.21400002 0.79600006 9064779
0.13100001 0.215 0.79900002 6899006
0.13500001 0.21600001 0.80400002 4862261
0.14 0.21800001 0.81000006 7554108
0.14400001 0.21900001 0.81500006 8869456
0.148 0.22000001 0.81700003 8934221
0.15200001 0.22100002 0.82100004 8869968
0.156 0.22200002 0.82500005 8543058
0.16000001 0.223 0.82800007 3283995
-0.054000001 0.22600001 0.83200002 8606286
-0.050000001 0.22500001 0.82900006 8540493
-0.047000002 0.22400001 0.82500005 8671822
-0.043000001 0.22200002 0.81900007 8803152
-0.040000003 0.22100002 0.81500006 8474187
-0.036000002 0.22000001 0.81100005 8868944
-0.033 0.21900001 0.80800003 7949128
-0.029000001 0.21800001 0.80400002 5782080
-0.026000001 0.21700001 0.80000001 5321527
-0.022000002 0.21600001 0.79600006 7948875
-0.019000001 0.215 0.79300004 8933710
-0.016000001 0.21400002 0.79000002 8606794
-0.013 0.21300001 0.78800005 8736844
-0.0090000005 0.21300001 0.78700006 8211268
-0.0060000001 0.21300001 0.78500003 7816510
-0.003 0.21200001 0.78300005 8342854
0 0.21200001 0.78200006 8342854
0.003 0.21100001 0.78100002 5845296
0.0070000002 0.21100001 0.78000003 3547688
0.010000001 0.21100001 0.77900004 3351591
0.013 0.21000001 0.77700001 3483178
0.016000001 0.21000001 0.77600002 3483183
0.019000001 0.21000001 0.77500004 3613996
0.022000002 0.21000001 0.77400005 3944759
0.025 0.20900001 0.77300006 4271665
0.029000001 0.20900001 0.77200001 5783617
0.032000002 0.20900001 0.77100003 8737099
0.035 0.20900001 0.77000004 8474183
0.038000003 0.20900001 0.77000004 8802633
0.041000001 0.208 0.76900005 8802633
0.044000003 0.208 0.76900005 8606026
0.047000002 0.208 0.76900005 8539971
0.050000001 0.20900001 0.76900005 7487555
0.053000003 0.20900001 0.76900005 7291201
0.057000004 0.20900001 0.77000004 4010042
0.060000002 0.20900001 0.76900005 4666167
0.063000001 0.20900001 0.76900005 7619648
0.066 0.20900001 0.76900005 9261639
0.069000006 0.20900001 0.76900005 9524040
0.072000004 0.20900001 0.76900005 9458247
0.076000005 0.20900001 0.77000004 9129797
0.079000004 0.20900001 0.77000004 8603455
0.082000002 0.21000001 0.77200001 9129286
0.085000001 0.21000001 0.77200001 8931650
0.089000002 0.21000001 0.77400005 8471615
0.092000008 0.21100001 0.77500004 8997959
0.095000006 0.21100001 0.77600002 8866374
0.099000007 0.21200001 0.77700001 8668994
0.10200001 0.21200001 0.77900004 8406081
0.10600001 0.21200001 0.78000003 8801093
0.109 0.21300001 0.78200006 8866888
0.11300001 0.21400002 0.78400004 8932425
0.116 0.21400002 0.78600001 8735302
0.12 0.215 0.78800005 8867145
0.123 0.21600001 0.79100001 9064783
0.127 0.21700001 0.79300004 9065034
0.13100001 0.21700001 0.79600006 8015174
0.13500001 0.21900001 0.80100006 4729907
0.13900001 0.22100002 0.80700004 7094074
0.14400001 0.22200002 0.81200004 9197652
0.147 0.223 0.81400001 8605772
0.15200001 0.22400001 0.81800002 8672331
0.156 0.22500001 0.82200003 6307379
0.16000001 0.22600001 0.82500005 6375756
-0.054000001 0.22800002 0.82900006 8540749
-0.050000001 0.22700001 0.82600003 8409164
-0.047000002 0.22600001 0.82200003 8211785
-0.043000001 0.22500001 0.81600004 8343371
-0.039000001 0.223 0.81200004 8474957
-0.036000002 0.22200002 0.80800003 8540493
-0.033 0.22200002 0.80600005 7292483
-0.029000001 0.22000001 0.80100006 5126719
-0.026000001 0.21900001 0.79700005 5520188
-0.022000002 0.21800001 0.79300004 8540233
-0.019000001 0.21700001 0.79000002 8737612
-0.016000001 0.21700001 0.78800005 8671819
-0.013 0.21600001 0.78700006 8211268
-0.0090000005 0.21600001 0.78500003 8276550
-0.0060000001 0.215 0.78300005 8210498
-0.003 0.215 0.78200006 8211014
0 0.215 0.78100002 8606026
0.003 0.215 0.78000003 5252897
0.0070000002 0.21400002 0.77900004 6375493
0.010000001 0.21400002 0.77800006 7032655
0.013 0.21400002 0.77700001 5258299
0.016000001 0.21300001 0.77500004 3680553
0.019000001 0.21300001 0.77300006 3221294
0.022000002 0.21200001 0.77200001 3352105
0.025 0.21200001 0.77100003 3614764
0.028000001 0.21200001 0.77000004 7361871
0.032000002 0.21200001 0.76900005 8737612
0.035 0.21100001 0.76800001 8803148
0.038000003 0.21100001 0.76800001 8670791
0.041000001 0.21100001 0.76700002 8670534
0.044000003 0.21100001 0.76700002 8801352
0.047000002 0.21100001 0.76700002 8539458
0.050000001 0.21100001 0.76700002 7751234
0.053000003 0.21100001 0.76700002 6501692
0.057000004 0.21200001 0.76800001 3616057
0.060000002 0.21200001 0.76800001 5913660
0.063000001 0.21200001 0.76800001 7356476
0.066 0.21100001 0.76700002 9064007
0.069000006 0.21200001 0.76700002 9326661
0.072000004 0.21200001 0.76800001 8997696
0.075000003 0.21200001 0.76800001 9392199
0.079000004 0.21200001 0.76900005 9457992
0.082000002 0.21300001 0.77000004 9129028
0.085000001 0.21300001 0.77100003 8931648
0.088000007 0.21300001 0.77100003 8800834
0.092000008 0.21300001 0.77200001 8077113
0.095000006 0.21400002 0.77400005 8405822
0.098000005 0.21400002 0.77500004 8932166
0.10200001 0.215 0.77600002 8537408
0.105 0.215 0.77800006 8208957
0.109 0.21600001 0.78000003 8603715
0.112 0.21700001 0.78200006 8668994
0.116 0.21700001 0.78400004 8998472
0.119 0.21800001 0.78600001 8932679
0.123 0.21800001 0.78800005 8932681
0.127 0.21900001 0.79000002 8998985
0.13000001 0.22000001 0.79300004 8474954
0.13500001 0.22200002 0.79800004 4796210
0.13900001 0.223 0.80400002 6371642
0.14300001 0.22500001 0.80900002 9197393
0.147 0.22600001 0.81200004 8736842
0.15100001 0.22700001 0.81500006 8146755
0.155 0.22800002 0.81900007 6504244
0.16000001 0.22900002 0.82300001 6968402
-0.057000004 0.23200001 0.83000004 8738384
-0.054000001 0.23100001 0.82700002 8606285
-0.050000001 0.23 0.82400006 8145992
-0.046000004 0.22900002 0.81900007 8343371
-0.043000001 0.22700001 0.81300002 8343114
-0.039000001 0.22600001 0.80900002 8540749
-0.036000002 0.22500001 0.80600005 8015429
-0.032000002 0.22500001 0.80400002 6767940
-0.029000001 0.223 0.79900002 4863292
-0.026000001 0.22200002 0.79400003 7360078
-0.022000002 0.22100002 0.79100001 8869457
-0.019000001 0.22000001 0.78800005 8606283
-0.016000001 0.22000001 0.78600001 8211527
-0.013 0.21900001 0.78500003 8145732
-0.0090000005 0.21900001 0.78300005 8474440
-0.0060000001 0.21800001 0.78200006 8606284
-0.003 0.21800001 0.78000003 8737869
0 0.21800001 0.77900004 8212038
0.003 0.21700001 0.77800006 8409675
0.0070000002 0.21700001 0.77700001 7884360
0.010000001 0.21600001 0.77500004 7490369
0.013 0.21600001 0.77500004 7292992
0.016000001 0.21600001 0.77300006 8214354
0.019000001 0.21600001 0.77200001 8739663
0.022000002 0.215 0.77000004 7821649
0.025 0.215 0.76900005 4401701
0.028000001 0.215 0.76800001 8804946
0.031000001 0.21400002 0.76700002 8408904
0.035 0.21400002 0.76700002 7684924
0.038000003 0.21400002 0.76600003 8211011
0.041000001 0.21400002 0.76500005 8802633
0.044000003 0.21400002 0.76500005 8604743
0.047000002 0.21400002 0.76500005 8342084
0.050000001 0.21400002 0.76500005 7356219
0.053000003 0.21400002 0.76600003 4862260
0.056000002 0.21400002 0.76600003 3813433
0.060000002 0.21400002 0.76600003 6307902
0.063000001 0.21400002 0.76600003 7619390
0.066 0.21400002 0.76600003 9062977
0.069000006 0.215 0.76600003 9392199
0.072000004 0.215 0.76600003 9326408
0.075000003 0.215 0.76600003 9260615
0.079000004 0.215 0.76700002 9063237
0.082000002 0.215 0.76800001 8800320
0.085000001 0.21600001 0.76900005 8932163
0.088000007 0.21600001 0.76900005 8340285
0.092000008 0.21600001 0.77000004 8011577
0.095000006 0.21700001 0.77200001 8537921
0.098000005 0.21700001 0.77300006 8734787
0.10200001 0.21800001 0.77500004 8472128
0.105 0.21800001 0.77600002 8472129
0.109 0.21900001 0.77800006 8537922
0.112 0.21900001 0.78000003 8669507
0.116 0.22000001 0.78200006 8274749
0.119 0.22100002 0.78400004 9196364
0.123 0.22200002 0.78700006 8736074
0.127 0.22200002 0.78900003 8932674
0.13000001 0.223 0.79100001 8738383
0.134 0.22400001 0.79600006 5387317
0.13900001 0.22600001 0.80100006 5650741
0.14300001 0.22700001 0.80600005 8737869
0.147 0.22800002 0.80900002 8671048
0.15100001 0.22900002 0.81200004 8211522
0.155 0.23100001 0.81700003 7424065
0.15900001 0.23200001 0.82000005 6177856
0.164 0.23300001 0.82500005 4535351
-0.057000004 0.23500001 0.82900006 8540492
-0.054000001 0.23400001 0.82500005 8277321
-0.050000001 0.23300001 0.82100004 8737872
-0.046000004 0.23200001 0.81600004 8145735
-0.043000001 0.23 0.81000006 8343114
-0.039000001 0.22900002 0.80600005 8540493
-0.036000002 0.22800002 0.80400002 7488575
-0.032000002 0.22700001 0.80100006 5979192
-0.029000001 0.22600001 0.79600006 4665651
-0.026000001 0.22500001 0.79200006 7555913
-0.022000002 0.22400001 0.78900003 8737871
-0.019000001 0.223 0.78700006 8540233
-0.016000001 0.223 0.78500003 8014661
-0.013 0.22200002 0.78300005 8343882
-0.0090000005 0.22100002 0.78100002 8409158
-0.0060000001 0.22100002 0.77900004 8606028
-0.003 0.22100002 0.77800006 8474950
0 0.22000001 0.77700001 8342855
0.003 0.22000001 0.77600002 5189421
0.0070000002 0.22000001 0.77400005 3417382
0.010000001 0.21900001 0.77300006 3221544
0.013 0.21900001 0.77200001 3287082
0.016000001 0.21900001 0.77100003 3613734
0.019000001 0.21800001 0.77000004 4862511
0.022000002 0.21800001 0.76800001 8280656
0.025 0.21800001 0.76700002 8606542
0.028000001 0.21800001 0.76700002 8474438
0.031000001 0.21700001 0.76600003 8342853
0.035 0.21700001 0.76500005 8211266
0.038000003 0.21700001 0.76500005 8606024
0.041000001 0.21700001 0.76400006 8868426
0.044000003 0.21700001 0.76400006 8408647
0.047000002 0.21700001 0.76400006 8277059
0.050000001 0.21700001 0.76400006 7619135
0.053000003 0.21700001 0.76400006 3943730
0.056000002 0.21700001 0.76400006 4142398
0.059000004 0.21700001 0.76400006 7356480
0.063000001 0.21700001 0.76400006 8472386
0.066 0.21700001 0.76400006 8734786
0.069000006 0.21700001 0.76400006 8734787
0.072000004 0.21700001 0.76400006 9194308
0.075000003 0.21800001 0.76500005 8801858
0.078000002 0.21800001 0.76500005 8867656
0.082000002 0.21800001 0.76600003 8932422
0.085000001 0.21800001 0.76700002 8735300
0.088000007 0.21900001 0.76800001 8472128
0.092000008 0.21900001 0.76900005 8077370
0.095000006 0.21900001 0.77000004 8143420
0.098000005 0.22000001 0.77100003 8735813
0.10200001 0.22000001 0.77300006 7946040
0.105 0.22100002 0.77400005 8603714
0.108 0.22100002 0.77600002 8406593
0.112 0.22200002 0.77800006 8604227
0.115 0.223 0.78000003 8933192
0.119 0.223 0.78200006 8736327
0.123 0.22400001 0.78400004 8342086
0.126 0.22500001 0.78600001 8669507
0.13000001 0.22600001 0.78900003 8671047
0.134 0.22700001 0.79400003 5781043
0.13800001 0.22900002 0.79900002 4601656
0.14300001 0.23 0.80400002 8278855
0.147 0.23200001 0.80800003 8670279
0.15000001 0.23200001 0.81000006 8408390
0.155 0.23400001 0.81400001 8343882
0.15900001 0.23500001 0.81900007 5584948
0.163 0.23600002 0.82300001 6114638
-0.057000004 0.23800001 0.82700002 7882820
-0.054000001 0.23800001 0.82400006 8211526
-0.050000001 0.23600002 0.81900007 8277321
-0.046000004 0.23400001 0.81300002 8540493
-0.043000001 0.23300001 0.80800003 8540493
-0.039000001 0.23200001 0.80400002 8672079
-0.036000002 0.23100001 0.80200005 7554880
-0.032000002 0.23 0.79900002 4862256
-0.029000001 0.22900002 0.79400003 5321779
-0.026000001 0.22800002 0.79000002 8409678
-0.022000002 0.22700001 0.78700006 8606285
-0.019000001 0.22600001 0.78500003 6832188
-0.016000001 0.22500001 0.78300005 5388854
-0.012 0.22500001 0.78100002 5453368
-0.0090000005 0.22400001 0.77900004 7621446
-0.0060000001 0.22400001 0.77800006 8473416
-0.003 0.22400001 0.77700001 8342856
0 0.223 0.77600002 7160378
0.003 0.223 0.77400005 3548193
0.0070000002 0.223 0.77300006 4732980
0.010000001 0.22200002 0.77100003 5718335
0.013 0.22200002 0.77000004 4798262
0.016000001 0.22100002 0.76900005 3221543
0.019000001 0.22100002 0.76800001 3155241
0.022000002 0.22100002 0.76600003 5256240
0.025 0.22100002 0.76600003 8671558
0.028000001 0.22000001 0.76500005 7685178
0.031000001 0.22000001 0.76400006 7487802
0.035 0.22000001 0.76400006 7553593
0.038000003 0.22000001 0.76300001 8145475
0.041000001 0.22000001 0.76300001 8343109
0.044000003 0.22000001 0.76200002 8145733
0.047000002 0.22000001 0.76200002 7619642
0.050000001 0.22000001 0.76300001 6961977
0.053000003 0.22000001 0.76300001 3549487
0.056000002 0.22000001 0.76300001 3287859
0.059000004 0.22000001 0.76300001 6896442
0.063000001 0.22000001 0.76300001 8473412
0.066 0.22000001 0.76200002 8932677
0.069000006 0.22000001 0.76200002 8670788
0.072000004 0.22000001 0.76300001 8211012
0.075000003 0.22000001 0.76300001 5648168
0.078000002 0.22100002 0.76400006 7751485
0.082000002 0.22100002 0.76500005 8472641
0.085000001 0.22100002 0.76600003 8012090
0.088000007 0.22100002 0.76600003 7881018
0.091000006 0.22200002 0.76700002 7946297
0.095000006 0.22200002 0.76800001 8670020
0.098000005 0.223 0.77000004 8604227
0.101 0.223 0.77100003 8735301
0.105 0.22400001 0.77300006 8274751
0.108 0.22400001 0.77400005 8077884
0.112 0.22500001 0.77600002 8341055
0.115 0.22600001 0.77800006 8210237
0.119 0.22600001 0.78000003 8407614
0.12200001 0.22700001 0.78200006 8804175
0.126 0.22800002 0.78400004 8670273
0.13000001 0.22900002 0.78700006 8670791
0.134 0.23 0.79100001 6371635
0.13800001 0.23200001 0.79700005 4076086
0.142 0.23300001 0.80200005 7948097
0.14600001 0.23500001 0.80600005 8539974
0.15000001 0.23500001 0.80800003 8408389
0.155 0.23700002 0.81300002 7686980
0.15900001 0.23800001 0.81700003 5387311
0.163 0.24000001 0.82200003 6970203
-0.061000004 0.24300002 0.83000004 8540234
-0.057000004 0.24200001 0.82600003 8080199
-0.053000003 0.24100001 0.82200003 8079683
-0.050000001 0.23900001 0.81700003 8145735
-0.046000004 0.23700002 0.81100005 7948356
-0.043000001 0.23600002 0.80600005 8408907
-0.039000001 0.23500001 0.80300003 8277321
-0.036000002 0.23400001 0.80000001 7619908
-0.032000002 0.23300001 0.79600006 4929080
-0.029000001 0.23200001 0.79200006 6505540
-0.025 0.23 0.78800005 8278601
-0.022000002 0.23 0.78600001 8213838
-0.019000001 0.22900002 0.78300005 7159866
-0.016000001 0.22800002 0.78100002 8343884
-0.012 0.22800002 0.78000003 7425348
-0.0090000005 0.22700001 0.77700001 6044209
