# .PCD v0.7 - Point Cloud Data file format
VERSION 0.7
FIELDS x y z rgb
SIZE 4 4 4 4
TYPE F F F U
COUNT 1 1 1 1
WIDTH 1151
HEIGHT 1
VIEWPOINT 0 0 0 1 0 0 0
POINTS 1151
DATA ascii
-0.1825 -0.017500002 0.72000003 12156718
0.016000001 -0.018000001 0.72100008 7758657
0.020000001 -0.018000001 0.72400004 7693374
-0.19700001 -0.013 0.72400004 12090673
-0.19166668 -0.012000001 0.72300005 12222773
-0.18700001 -0.011500001 0.72200006 12419637
-0.1825 -0.0115 0.72075003 12419122
-0.178 -0.010000001 0.72000003 11959860
0.017000001 -0.015000001 0.72000003 7496514
0.022000002 -0.014333334 0.72200006 7496517
0.027000001 -0.011000001 0.72333336 7364929
-0.19100001 -0.0070000002 0.72400004 12551480
-0.18800001 -0.0070000002 0.72300005 12353845
-0.1825 -0.0070000002 0.72150004 12288053
0.029000001 -0.0070000002 0.72100002 7233343
0.032000002 -0.0070000002 0.72400004 7101756
-0.18800001 -0.0040000002 0.72400004 12155953
-0.1825 -0.0025000002 0.722 13145167
0.032000002 -0.0040000002 0.72100002 6969659
0.035 -0.0025000002 0.72300005 6969656
-0.1825 0.0020000001 0.72150004 13806187
0.038000003 0.0020000001 0.72300005 7035706
-0.192 0.0080000004 0.72250003 6903365
-0.1875 0.0065000001 0.72250003 13873017
-0.18400002 0.0050000004 0.72100002 13806193
0.037 0.0050000004 0.72000003 7100984
0.040000003 0.0065000001 0.72250003 6970169
0.043000001 0.011500001 0.72150004 6706994
0.046000004 0.013 0.72400004 6575410
0.047500003 0.017500002 0.72250009 6378803
0.049000002 0.022000002 0.72100002 6510137
0.052000001 0.022000002 0.72400004 6314051
0.052000001 0.025 0.72200006 6509631
0.055000003 0.028000001 0.72200006 5985347
0.057 0.031333335 0.72233337 5853509
0.058000002 0.036000002 0.72100002 6181702
0.062000003 0.038000003 0.72266674 2960165
0.063000001 0.042000003 0.72200006 1644823
0.063000001 0.045000002 0.72100002 1709590
0.067000002 0.048 0.72300005 1513241
0.066500001 0.052500002 0.722 1512985
-0.092000008 -0.21300001 0.72900003 9803693
-0.087500006 -0.21300001 0.72850001 8883109
-0.10250001 -0.20650002 0.727 10000300
-0.096500002 -0.20800002 0.72625005 9606060
-0.092000008 -0.208 0.72600007 9277098
-0.087500006 -0.20775001 0.72575003 8685735
-0.081500009 -0.20775001 0.72700006 7633305
-0.077000007 -0.208 0.72800004 1053995
-0.072500005 -0.20600002 0.72750008 9079201
-0.066500008 -0.20600002 0.72800004 10132400
-0.062000003 -0.20600002 0.72800004 10395572
-0.116 -0.20100001 0.72800004 11250103
-0.11000001 -0.20400001 0.72700006 10657712
-0.10700001 -0.20300001 0.72500002 10460848
-0.080000006 -0.20300001 0.72500002 7764630
-0.077000007 -0.20300001 0.72500002 1381938
-0.071000002 -0.20200001 0.72500002 9671595
-0.066500008 -0.20200001 0.72500002 10000814
-0.062000003 -0.20200001 0.72500002 10461365
-0.057500005 -0.20200001 0.72600001 9869232
-0.053000003 -0.20300001 0.72700006 9146284
-0.048500001 -0.20300001 0.72800004 9146287
-0.119 -0.19800001 0.72600001 11315640
-0.11300001 -0.2 0.72500002 10921140
-0.041000001 -0.19900002 0.72600001 8751784
-0.038000003 -0.2 0.72800004 8225703
-0.032000002 -0.19600001 0.72700006 7371168
-0.12800001 -0.192 0.72900003 11315895
-0.026000001 -0.193 0.72700006 6779805
-0.020000001 -0.19000001 0.72900003 6188185
-0.19000001 -0.18800001 0.72900003 854796
-0.13250001 -0.1875 0.72650003 11380662
-0.021500003 -0.1875 0.72500002 6385306
-0.018000001 -0.18700001 0.72900003 6319513
-0.13700001 -0.18300001 0.72600001 11315132
-0.017000001 -0.18300001 0.72500002 6516121
-0.14600001 -0.177 0.72900003 10194298
-0.14300001 -0.177 0.72700006 12102840
-0.14 -0.18000001 0.72700006 11447475
-0.013 -0.17900001 0.727 6450583
-0.16700001 -0.171 0.72600001 11117711
-0.16100001 -0.17400001 0.72700006 9473666
-0.15800001 -0.17400001 0.72500002 9539199
-0.1525 -0.17400001 0.72500002 9013108
-0.14650001 -0.17300001 0.72500002 8747881
-0.012 -0.17400001 0.72600001 6516378
-0.0090000005 -0.17200001 0.72800004 6450579
0.012 -0.17200001 0.72900003 9211513
0.015000001 -0.17200001 0.72900003 8356211
-0.17600001 -0.16600001 0.72700006 12564126
-0.17300001 -0.16900001 0.72800004 11841176
-0.0075000003 -0.16850001 0.72750002 6777719
-0.003 -0.16600001 0.72800004 9145202
0.0015 -0.16750002 0.72850001 9868670
0.0075000003 -0.16800001 0.72650003 9276793
0.012 -0.16800001 0.72500002 9145719
0.018000001 -0.16800001 0.72500002 7566699
0.021000002 -0.16800001 0.72700006 1777434
-0.18300001 -0.16000001 0.72900003 13287589
-0.17900001 -0.163 0.72700006 13551537
-0.0075000003 -0.16350001 0.72600007 7106411
-0.003 -0.162 0.72600001 9802100
0.0015 -0.16350001 0.72549999 9473907
0.0060000001 -0.16500001 0.72500002 4604721
0.024 -0.16500001 0.72600001 1316885
0.027000001 -0.163 0.72800004 5462351
-0.18200001 -0.156 0.72600001 13616809
-0.0060000001 -0.15900001 0.72500002 9408623
-0.003 -0.15900001 0.72500002 10262645
0.027000001 -0.1575 0.72650003 6448725
-0.18100001 -0.15000001 0.72500002 13154967
0.023000002 -0.15133335 0.72666669 6250828
0.027000001 -0.15400001 0.72800004 6514257
-0.18200001 -0.147 0.72600001 13482900
0.018000001 -0.147 0.72500002 6314310
0.021000002 -0.148 0.72800004 6380102
-0.18200001 -0.14300001 0.72850001 14664853
-0.178 -0.141 0.72500002 13744777
0.0165 -0.14250001 0.72650003 6050620
-0.178 -0.1365 0.72700006 14728064
0.012 -0.1365 0.72549999 6378811
0.015000001 -0.13900001 0.72900003 6180400
-0.18200001 -0.132 0.72900003 14793340
-0.17650001 -0.13150001 0.72549999 14595701
0.012 -0.13150001 0.72850001 7493932
-0.18100001 -0.1275 0.72750008 14333299
-0.178 -0.1275 0.72549999 14266990
0.0090000005 -0.126 0.72500002 6969400
-0.18100001 -0.123 0.72700006 14069610
-0.177 -0.123 0.72500002 14266989
0.0090000005 -0.123 0.72700006 7559207
-0.18100001 -0.11850001 0.72700006 14003820
0.0090000005 -0.119 0.72800004 7427364
-0.29000002 -0.11100001 0.72700006 2958116
-0.28300002 -0.11100001 0.72500002 4141875
-0.278 -0.11100001 0.72600001 7760232
-0.273 -0.11000001 0.72500002 13681344
-0.26750001 -0.11000001 0.72500002 13483442
-0.26000002 -0.11300001 0.72600001 13417907
-0.25766668 -0.111 0.72633332 12496793
-0.25266668 -0.111 0.72766668 11838344
-0.24800001 -0.11000001 0.72900003 11113074
-0.18100001 -0.11250001 0.72750008 13609572
0.0060000001 -0.11100001 0.72600001 7165218
-0.29150003 -0.108 0.72600001 8156018
-0.28600001 -0.108 0.72600001 14142921
-0.28300002 -0.108 0.72600001 13746616
-0.27850002 -0.108 0.72700006 13615017
-0.273 -0.10700001 0.72600001 13812131
-0.26750001 -0.10700001 0.72500002 13218964
-0.25300002 -0.10700001 0.72500002 11771252
-0.2485 -0.10700001 0.72650003 11244650
-0.24400002 -0.10700001 0.72800004 10915172
-0.18100001 -0.108 0.72800004 13675365
0.0060000001 -0.1075 0.72800004 6310945
-0.30100003 -0.10300001 0.72900003 14865089
-0.29700002 -0.10350001 0.72750008 13483691
-0.29150003 -0.10350001 0.72700006 13285271
-0.28600001 -0.10350001 0.72650003 12362613
-0.28300002 -0.10350001 0.72700006 13086081
-0.27825001 -0.10325001 0.72675002 13677957
-0.27250001 -0.10250001 0.72549999 13349245
-0.26750001 -0.104 0.72500002 12757108
-0.24600001 -0.10300001 0.72500002 10915931
-0.24200001 -0.10350001 0.727 10716502
-0.23800001 -0.104 0.72900003 10648404
-0.18100001 -0.105 0.72900003 13609576
-0.177 -0.101 0.72500002 13541451
0.003 -0.10300001 0.72600001 3285263
-0.30050004 -0.097500004 0.72800004 13743492
-0.29650003 -0.097500004 0.72750008 12886631
-0.29150003 -0.097500011 0.72700006 12820311
-0.28600001 -0.097500004 0.72700006 12555338
-0.28300002 -0.097500004 0.72700006 13675370
-0.278 -0.096500002 0.72650003 13676661
-0.27200001 -0.096500009 0.72500002 13610094
-0.24300002 -0.1 0.72500002 10715977
-0.2378 -0.098800004 0.72680002 10583369
-0.23250002 -0.097000003 0.72800004 10451273
-0.17750001 -0.097500004 0.72800004 13410120
-0.17400001 -0.096000001 0.72600001 13276988
0.0015 -0.098499998 0.72800004 2562321
-0.303 -0.093000002 0.72600001 12626300
-0.29750001 -0.093000002 0.72549999 11768922
-0.29100001 -0.093000002 0.72650003 11897407
-0.28600001 -0.093000002 0.72700006 12222768
-0.28300002 -0.092000008 0.72700006 14002789
-0.27750003 -0.092000008 0.72650003 13939058
-0.23600002 -0.094000004 0.72500002 10845502
-0.23233335 -0.093000002 0.72600001 10582849
-0.22833334 -0.092000008 0.72733337 10516548
-0.22400001 -0.091000006 0.72800004 10254147
-0.17250001 -0.092500001 0.72650003 13144890
-0.0060000001 -0.091000006 0.72700006 5917224
-0.003 -0.092500001 0.72750002 3023121
-0.3125 -0.088500008 0.72850001 13283968
-0.30600002 -0.090000004 0.72500002 12494708
-0.29500002 -0.090000004 0.72500002 11965274
-0.29200003 -0.089000002 0.72500002 11306562
-0.28750002 -0.087499999 0.72600007 11106095
-0.28250003 -0.087500006 0.72650003 13872492
-0.27850002 -0.087500006 0.72549999 13742450
-0.27500001 -0.089000002 0.72500002 13743218
-0.22850001 -0.088000007 0.72549999 10516283
-0.22250001 -0.088000007 0.72800004 10318906
-0.17500001 -0.090000004 0.72900003 12815671
-0.171 -0.088500008 0.727 13078328
-0.16800001 -0.088 0.72549999 13144121
-0.164 -0.086000003 0.72500002 13078329
-0.0070000002 -0.088000007 0.727 6178597
-0.31600001 -0.081 0.72500002 13611126
-0.28500003 -0.081500009 0.72500002 13280093
-0.28200001 -0.081500009 0.72500002 13412450
-0.27800003 -0.083000004 0.72500002 13413482
-0.22133334 -0.083999999 0.72600007 10252335
-0.21800001 -0.083499998 0.72850001 10252082
-0.16800001 -0.084000006 0.72800004 13013051
-0.16325 -0.082249999 0.727 13012794
-0.15800001 -0.080000006 0.72500002 12749107
-0.011000001 -0.083499998 0.72549999 7952420
-0.0070000002 -0.083499998 0.72800004 6112285
-0.32000002 -0.075000003 0.72800004 13480559
-0.22000001 -0.078000002 0.72500002 10581296
-0.21700001 -0.077000007 0.72549999 10515503
-0.21333332 -0.077 0.72766668 10514993
-0.162 -0.078000002 0.72900003 12552245
-0.1575 -0.076499999 0.72850001 5450757
-0.15400001 -0.076000005 0.72650003 7883543
-0.012500001 -0.077500001 0.72575009 8017701
-0.0080000004 -0.078000009 0.72850001 7952426
-0.31900001 -0.072000004 0.72500002 13676670
-0.21250001 -0.072000004 0.72549999 10712625
-0.208 -0.073000006 0.72800004 10384175
-0.15000001 -0.072000004 0.72900003 5582082
-0.14750001 -0.072500005 0.72600007 11106362
-0.14300001 -0.071000002 0.72500002 11632701
-0.017000001 -0.073000006 0.72500002 8280614
-0.012500001 -0.072250001 0.72750008 8083495
-0.20766668 -0.069000006 0.72633332 10580784
-0.20300001 -0.066 0.727 10646062
-0.14250001 -0.067500003 0.72850001 10843714
-0.13833334 -0.067333333 0.72633332 11369528
-0.13250001 -0.065000005 0.72650003 10910527
-0.12800001 -0.065000005 0.72500002 10384457
-0.020000001 -0.065000005 0.72500002 8476965
-0.017000001 -0.067666672 0.72600001 8411431
-0.013000001 -0.067000009 0.72833329 8017191
-0.20100001 -0.063000001 0.72600001 10712108
-0.19900002 -0.063000001 0.72800004 10580522
-0.132 -0.063000001 0.72900003 7886906
-0.12900001 -0.063000001 0.72800004 6245962
-0.1235 -0.062000003 0.72549999 4148597
-0.020000001 -0.062000003 0.72600001 8279589
-0.017000001 -0.062000003 0.72700006 7885606
-0.014 -0.062000003 0.72900003 7754021
-0.20100001 -0.060000002 0.72500002 10908971
-0.19800001 -0.058500003 0.72549999 10382369
-0.19433333 -0.058000002 0.72799999 10250271
-0.126 -0.060000002 0.72900003 4153256
-0.1225 -0.058000006 0.72800004 3496100
-0.11775 -0.057750002 0.72625005 2905248
-0.11300001 -0.056000002 0.72500002 2970779
-0.020000001 -0.059000004 0.72500002 8280355
-0.017000001 -0.057500005 0.72700006 8148771
-0.014 -0.057500005 0.72900003 7951651
-0.193 -0.053000003 0.72633338 10513182
-0.18900001 -0.052500002 0.72850001 10908196
-0.11800001 -0.052666668 0.72700006 5463428
-0.017000001 -0.053000003 0.72600001 8740140
-0.014 -0.053000003 0.72900003 8608810
-0.31200001 -0.047000002 0.72700006 13346685
-0.19100001 -0.048 0.72500002 11171365
-0.1875 -0.048 0.727 10973987
-0.123 -0.048 0.72900003 13736269
-0.11750001 -0.049000002 0.72549999 12159310
-0.017000001 -0.050000001 0.72500002 8215852
-0.013000001 -0.048000004 0.72666669 8413746
-0.30800003 -0.044000003 0.72500002 11966327
-0.29100001 -0.041000001 0.72500002 10645294
-0.287 -0.040000003 0.72500002 10644265
-0.28250003 -0.040000003 0.72500002 10907438
-0.27800003 -0.040000003 0.72600001 10644264
-0.27275002 -0.041500002 0.72549999 10840870
-0.26699999 -0.041000005 0.72633338 10577700
-0.26233336 -0.041999999 0.72600007 11104297
-0.25650001 -0.041500002 0.72624999 11236139
-0.25150001 -0.041500002 0.72600007 11104553
-0.24850002 -0.041500002 0.72600007 11499054
-0.24350001 -0.040000003 0.72549999 11959600
-0.23800001 -0.040000003 0.72500002 11762220
-0.18700001 -0.045000002 0.72600007 10973730
-0.18366666 -0.043000001 0.72666675 10578973
-0.18000001 -0.042000003 0.72800004 10053403
-0.1235 -0.043500002 0.72700006 13410396
-0.011000001 -0.044000003 0.72600001 8283704
-0.0073333331 -0.042333335 0.72733337 8086587
-0.30100003 -0.038000003 0.72500002 8814724
-0.29800001 -0.038000003 0.72500002 9075565
-0.29250002 -0.038000003 0.72500002 10579512
-0.28800002 -0.038000003 0.72600001 10052654
-0.28250003 -0.037 0.72600001 10446894
-0.27800003 -0.037 0.72700006 10381103
-0.27350003 -0.037 0.72750008 10118189
-0.26700002 -0.037 0.72800004 10117158
-0.26200002 -0.037 0.72900003 10906669
-0.25749999 -0.037 0.72900003 10841133
-0.25300002 -0.037 0.72900003 10906668
-0.2475 -0.037 0.72800004 11367983
-0.24200001 -0.037 0.72700006 11565871
-0.23700002 -0.037 0.72549999 11500078
-0.18200001 -0.039000001 0.72500002 10316054
-0.17775001 -0.037500001 0.72624999 10777382
-0.1735 -0.037500001 0.72800004 11107638
-0.16850001 -0.036000002 0.72750008 11436607
-0.163 -0.036000002 0.72850001 11042882
-0.13700001 -0.036000002 0.72700006 12687450
-0.13250001 -0.037500001 0.72750002 12819293
-0.12800001 -0.039000001 0.72600001 12753500
-0.0060000001 -0.038000003 0.72500002 8152384
-0.003 -0.037500001 0.72650003 8021311
0.0015 -0.036000002 0.72800004 8021570
-0.30100003 -0.035 0.72500002 2959404
-0.29650003 -0.033500001 0.72650003 5657686
-0.29233336 -0.033999998 0.72666669 2960176
-0.28700003 -0.03325 0.72800004 5523263
-0.28150001 -0.033 0.72800004 5651496
-0.27766669 -0.032000002 0.72833341 6508092
-0.27350003 -0.034000002 0.72800004 9657641
-0.26750001 -0.034000002 0.72900003 9723180
-0.24300002 -0.034000002 0.72900003 11105589
-0.237 -0.033000004 0.7280001 11434036
-0.23250002 -0.032500003 0.72750002 11827762
-0.22775002 -0.032500003 0.72649997 11761968
-0.223 -0.031000001 0.72600001 12156725
-0.21900001 -0.031000001 0.72500002 12354100
-0.16850001 -0.033 0.72500002 11304502
-0.16250001 -0.033 0.72549999 11107390
-0.15800001 -0.033 0.72600001 12359002
-0.15350001 -0.033 0.72700006 12753760
-0.14750001 -0.033 0.72650003 12753759
-0.14300001 -0.033 0.72500002 12557151
0.0015 -0.033 0.72600007 8086845
0.0060000001 -0.033 0.72800004 8086846
-0.22700001 -0.028000001 0.72900003 11697975
-0.22150001 -0.028000001 0.72750008 12158003
-0.21600001 -0.028000001 0.72500002 12486452
0.0080000004 -0.029000001 0.72633338 8021310
0.012 -0.028500002 0.72800004 8087103
0.015000001 -0.027000001 0.72800004 8021311
-0.25100002 -0.022000002 0.72500002 3946304
-0.22000001 -0.025 0.72800004 12093503
-0.21650001 -0.023500001 0.727 12488262
-0.21300001 -0.023500001 0.72549999 12553534
0.016999999 -0.023000002 0.7256667 7824449
0.021333337 -0.022 0.72833341 7692605
-0.21350002 -0.017500002 0.72800004 11962441
-0.20900001 -0.017000003 0.72600007 11894838
0.023000002 -0.018000001 0.72600001 7561791
0.026000001 -0.018000001 0.72900003 7430205
-0.21100001 -0.013 0.72900003 10910015
-0.20750001 -0.011500001 0.72850001 11699012
-0.20300001 -0.011 0.72700006 12027460
-0.199 -0.011500001 0.72549999 12353591
-0.19400001 -0.010000001 0.72500002 11959603
0.0275 -0.014 0.72700006 7233859
0.032000002 -0.010000001 0.72700006 7036220
-0.20500001 -0.0070000002 0.72900003 11897941
-0.20100001 -0.0070000002 0.72800004 11961422
-0.19800001 -0.0070000002 0.72700006 11829306
-0.19400001 -0.0070000002 0.72500002 12288310
0.035 -0.0070000002 0.72700006 6904638
-0.20100001 -0.0040000002 0.72900003 11701592
-0.19800001 -0.0025000002 0.72850001 12423258
-0.19300002 -0.0025000002 0.72650009 12421700
-0.18800001 -0.001 0.72500002 11894327
0.038000003 -0.0025000002 0.72650003 6904378
-0.19350001 0.0020000001 0.72800004 12094033
-0.18800001 0.0020000001 0.72500002 13212250
0.041000001 0.0020000001 0.72600001 6904377
-0.19800001 0.0050000004 0.72900003 4734526
-0.19300002 0.0050000004 0.727 9991252
0.044000003 0.0065000001 0.72750002 6838583
0.047500003 0.011500001 0.72700006 6444597
0.049000002 0.016000001 0.72500002 6182197
0.052000001 0.017500002 0.727 5985860
0.055000003 0.019000001 0.72900003 1709843
0.056500003 0.022000002 0.72800004 3157548
0.057 0.026000001 0.7256667 4670525
0.061000004 0.028000001 0.72700006 1446933
0.061000004 0.032500003 0.72600007 2499361
-0.088500008 -0.21700001 0.73100001 9277589
-0.10300001 -0.21266668 0.73233336 10263471
-0.097500004 -0.21400002 0.73100007 10066861
-0.082500003 -0.21350002 0.73049998 8422808
-0.078000002 -0.21400002 0.73200005 9606560
-0.072000004 -0.21100001 0.73200005 10461614
-0.067500003 -0.21100001 0.73200005 11249848
-0.063000001 -0.21100001 0.73300004 10986933
-0.11250001 -0.20700002 0.73199999 10855602
-0.108 -0.208 0.73000002 10591921
-0.075000003 -0.21000001 0.73100001 9146011
-0.057500005 -0.20700002 0.73000002 10329524
-0.052000001 -0.20700002 0.73199999 9080233
-0.12 -0.20200001 0.73200005 11513274
-0.043000005 -0.2035 0.73100007 8620458
-0.033 -0.20100001 0.73400003 7173791
-0.185 -0.19600001 0.73300004 1314579
-0.126 -0.19600001 0.73000002 11513277
-0.123 -0.19900002 0.73000002 11447481
-0.035 -0.2 0.73000002 7699876
-0.028000001 -0.19750002 0.73199999 6779805
-0.19100001 -0.19350001 0.73100007 1248786
-0.1875 -0.19350001 0.73049998 1183506
-0.18300001 -0.192 0.73199999 1380372
-0.17900001 -0.192 0.73300004 14999523
-0.17300001 -0.19500001 0.73400003 2300445
-0.13500001 -0.19100001 0.73400003 11446454
-0.024 -0.19400001 0.73100001 6516636
-0.19250001 -0.186 0.73300004 1644053
-0.1875 -0.1875 0.73150003 1183504
-0.18350001 -0.18900001 0.73300004 1182993
-0.13800001 -0.18700001 0.73200005 11578556
-0.19250001 -0.18300001 0.73250008 1512213
-0.147 -0.18100001 0.73300004 10127476
-0.14250001 -0.1825 0.73100001 11511214
-0.0135 -0.18350001 0.73049998 6515867
-0.16900001 -0.17600001 0.73300004 10590861
-0.16500001 -0.17500001 0.73000002 6380881
-0.1575 -0.1785 0.73199999 8748402
-0.15300001 -0.178 0.73100001 9273966
-0.149 -0.178 0.73000002 9996660
-0.0080000004 -0.17666668 0.73166674 6317959
-0.17500001 -0.17300001 0.73300004 11577495
-0.171 -0.17200001 0.73000002 11380884
-0.0060000001 -0.17200001 0.73100001 6513766
-0.003 -0.17300001 0.73300004 8158326
0.0015 -0.17300001 0.73250008 8947833
0.0075000003 -0.17200001 0.73049998 9671550
0.018000001 -0.17200001 0.73000002 7567209
0.021000002 -0.17300001 0.73200005 6976110
-0.18100001 -0.16700001 0.73200005 13221288
-0.178 -0.17 0.73200005 12432287
-0.003 -0.16900001 0.73000002 8618612
0 -0.16900001 0.73000002 9539706
0.024 -0.16900001 0.73000002 3619898
0.027000001 -0.16600001 0.73100001 2633005
0.030000001 -0.162 0.73150003 6382683
-0.18700001 -0.15800001 0.73400003 14011567
0.030000001 -0.15700001 0.73000002 6317136
-0.186 -0.1525 0.73100001 14207398
0.027000001 -0.15100001 0.73000002 6447694
0.030000001 -0.1525 0.73150003 6316110
-0.186 -0.14700001 0.73250008 14731936
0.023000002 -0.14600001 0.7306667 6445635
0.027000001 -0.14700001 0.73300004 6511941
0.030000001 -0.149 0.73400003 6314564
-0.186 -0.142 0.73300004 14663562
0.018000001 -0.142 0.73000002 5787959
0.022500001 -0.14250001 0.73300004 6116155
-0.186 -0.13750002 0.73250008 14663045
-0.18200001 -0.13750002 0.73000002 14793856
0.016999999 -0.13700001 0.73166674 7165483
0.021000002 -0.14 0.73400003 4867625
-0.1875 -0.13150001 0.73300004 14597767
-0.185 -0.13000001 0.73100001 14465918
0.0165 -0.132 0.73275 7952934
-0.18900001 -0.127 0.73400003 14596739
-0.185 -0.127 0.73000002 14005370
0.012 -0.127 0.73000002 7886627
0.0165 -0.1275 0.7335 7756322
-0.18900001 -0.12400001 0.73400003 14071158
-0.185 -0.1225 0.73049998 13939056
0.012 -0.1225 0.73150003 7558950
0.016000001 -0.12366667 0.73366672 7690277
-0.25300002 -0.11700001 0.73400003 12497570
-0.185 -0.11800001 0.73100001 13610098
0.012 -0.11700001 0.7335 7493153
-0.252 -0.11300001 0.73000002 11641484
-0.2475 -0.11400001 0.73250008 11114618
-0.24350001 -0.11000001 0.73100007 10718569
-0.24000001 -0.11000001 0.73400003 10518363
-0.185 -0.1135 0.73200005 10518887
0.0090000005 -0.11233333 0.73166674 7230494
-0.24200001 -0.10700001 0.73000002 10650718
-0.23750001 -0.10700001 0.73199999 10386774
-0.185 -0.1075 0.7335 6177845
-0.23500001 -0.104 0.73100001 10582868
-0.23250002 -0.10250001 0.73199999 10517073
-0.22900002 -0.101 0.73300004 10517327
-0.18100001 -0.10200001 0.73000002 13477221
0.0060000001 -0.10200001 0.73300004 6114854
-0.30600002 -0.1 0.73400003 14469545
-0.30500001 -0.097000003 0.73100001 14139800
-0.22700001 -0.097500004 0.73150003 10517069
-0.223 -0.095000006 0.73300004 10582601
-0.18150002 -0.097500004 0.73150003 12950630
0.003 -0.096000001 0.73250002 4141350
-0.30800003 -0.094000004 0.73100001 12758931
-0.22233336 -0.092333339 0.73166674 10385477
-0.18200001 -0.094000004 0.73400003 11831616
-0.178 -0.093000002 0.73000002 13278536
0 -0.09300001 0.73100007 2432019
-0.21900001 -0.088000007 0.73200005 10449983
-0.17733335 -0.088333338 0.73200005 12948801
-0.003 -0.087000005 0.73049998 4272411
0 -0.087500006 0.73300004 6114867
-0.31900001 -0.085000001 0.73300004 13808511
-0.21600001 -0.085000001 0.73200005 10515260
-0.21400002 -0.082000002 0.73100007 10383414
-0.17500001 -0.084000006 0.73300004 12947000
-0.17200001 -0.082500003 0.73150003 13275710
-0.16900001 -0.081 0.73100001 12946746
-0.0060000001 -0.080000006 0.73000002 7689519
-0.003 -0.081500009 0.73100001 7428144
0 -0.081500009 0.7335 7494706
-0.21200001 -0.079000004 0.73000002 10580275
-0.208 -0.077 0.73133343 10449209
-0.20400001 -0.076000005 0.73400003 10252872
-0.16700001 -0.077 0.73266667 12815160
-0.163 -0.075000003 0.73200005 12486453
-0.15900001 -0.075000003 0.73000002 9265699
-0.0060000001 -0.077000007 0.73000002 8017707
-0.003 -0.077000007 0.73200005 8018732
0 -0.077000007 0.73400003 7757105
-0.20600002 -0.073000006 0.73000002 10383925
-0.20300001 -0.073000006 0.73200005 10252602
-0.2 -0.073000006 0.73400003 10186813
-0.16000001 -0.072000004 0.73400003 12354095
-0.15700001 -0.072000004 0.73200005 5516034
-0.15300001 -0.072000004 0.73100001 5845773
-0.0070000002 -0.072500005 0.73100001 8018220
-0.003 -0.072500005 0.7335 7952428
-0.20200001 -0.07 0.73000002 10449201
-0.19825001 -0.068499997 0.73200005 10448945
-0.19400001 -0.067000002 0.73400003 10185521
-0.15100001 -0.069000006 0.73300004 6042892
-0.147 -0.069000006 0.73100001 5713414
-0.14400001 -0.066 0.73200005 4726787
-0.011000001 -0.065000005 0.73000002 7820584
-0.0072499998 -0.066500001 0.73250002 7820843
-0.19600001 -0.064000003 0.73000002 10382122
-0.19200002 -0.0625 0.73225003 10184999
-0.142 -0.063000001 0.73400003 4202503
-0.1365 -0.063000001 0.73100007 9332278
-0.011000001 -0.062000003 0.73100001 7754534
-0.0090000005 -0.062000003 0.73300004 7622950
-0.19000001 -0.058000002 0.73100001 10710820
-0.18700001 -0.056500003 0.73250008 10710307
-0.18400002 -0.055000003 0.73400003 10709792
-0.13600001 -0.060000002 0.73400003 2833774
-0.132 -0.060000002 0.73200005 3297682
-0.12800001 -0.058000002 0.73133332 4022441
-0.011000001 -0.057500005 0.73200005 7754532
-0.0090000005 -0.059000004 0.73400003 7359781
-0.18700001 -0.051000003 0.73000002 10645280
-0.1825 -0.052000001 0.73300004 10316063
-0.126 -0.052500002 0.73300004 5267601
-0.123 -0.052500002 0.73000002 6184834
-0.011000001 -0.053000003 0.73200005 8609068
-0.0090000005 -0.052500002 0.7335 8215595
-0.18200001 -0.048500001 0.73100007 10512927
-0.178 -0.047500003 0.73300004 10118945
-0.126 -0.048 0.73200005 13144650
-0.011000001 -0.050000001 0.73000002 8216111
-0.0070000002 -0.048 0.73250002 8217653
-0.17733334 -0.043333337 0.7306667 10382373
-0.17200001 -0.043000001 0.73400003 10712888
-0.16800001 -0.040000003 0.73100001 11371588
-0.16266668 -0.040000003 0.73300004 10845509
-0.132 -0.042000003 0.73400003 13410401
-0.12800001 -0.044 0.73133332 13541212
-0.0060000001 -0.045000002 0.73100001 8086074
-0.003 -0.043500002 0.73250002 7954490
0 -0.042000003 0.73400003 7889469
-0.171 -0.039000001 0.73000002 11042619
-0.1575 -0.036000002 0.73049998 11767382
-0.15150002 -0.036000002 0.73200005 12621664
-0.147 -0.036000002 0.73200005 12490591
-0.14250001 -0.036000002 0.73049998 12490589
-0.1365 -0.039000001 0.73300004 12557152
0.0015 -0.039000001 0.73150003 7824450
0.0075000003 -0.036000002 0.73250002 7824709
-0.273 -0.031000001 0.73000002 8879738
-0.26750001 -0.031000001 0.73049998 7038046
-0.26199999 -0.032000002 0.73066664 7820342
-0.25733337 -0.033000004 0.73033333 10053424
-0.25300002 -0.032500003 0.73049998 10184753
-0.24825001 -0.032500003 0.73049998 10513716
-0.24300002 -0.031000001 0.73000002 10645304
-0.24000001 -0.031000001 0.73000002 10710836
0.0090000005 -0.033 0.73000002 8087105
0.012 -0.033 0.73200005 7890240
0.015000001 -0.033 0.73400003 7693376
-0.28750002 -0.029000001 0.73000002 2894640
-0.28300002 -0.029000001 0.73100001 9012101
-0.27850002 -0.029000001 0.73200005 9210249
-0.27149999 -0.028000001 0.73200005 2631206
-0.26700002 -0.028000001 0.73200005 2038814
-0.2615 -0.028000001 0.73200005 10328477
-0.25600001 -0.028000001 0.73100001 11579060
-0.25300002 -0.028000001 0.73100001 11842489
-0.2485 -0.028000001 0.73150003 8546388
-0.24250001 -0.028000001 0.73200005 10383425
-0.23700002 -0.028000001 0.73200005 10646844
-0.23400001 -0.028000001 0.73100001 11303487
-0.23 -0.028000001 0.73000002 11303483
0.016999999 -0.029000001 0.73133332 7955517
0.022500001 -0.027000001 0.73300004 7889726
-0.26700002 -0.025 0.73400003 12303553
-0.2615 -0.025 0.73200005 12368834
-0.25600001 -0.025 0.73000002 5657947
-0.25300002 -0.025 0.73100001 3552831
-0.24933334 -0.024000002 0.73200005 3683645
-0.23500001 -0.025 0.73400003 10779463
-0.23100001 -0.025 0.73300004 11042118
-0.22700001 -0.025 0.73100001 11173186
-0.22333336 -0.023000002 0.73100001 11831625
0.023000002 -0.024 0.73200005 7889467
0.027000001 -0.022 0.73300004 7495482
-0.22200002 -0.019000001 0.73300004 11898201
-0.21800001 -0.017500002 0.73100007 11832919
0.029000001 -0.017500002 0.73100007 7233341
0.032000002 -0.017500002 0.73300004 7297847
-0.213 -0.011500001 0.73100001 10978662
0.032000002 -0.013 0.73000002 6970945
0.035999998 -0.011 0.73233336 7101498
-0.20900001 -0.0070000002 0.73200005 10454128
0.038000003 -0.0070000002 0.73100001 6970169
-0.20500001 -0.0040000002 0.73200005 8154212
-0.20200001 -0.001 0.73200005 5523272
0.041000001 -0.0025000002 0.73150003 6904121
-0.20300001 0.0020000001 0.73300004 4865593
-0.19900002 0.0020000001 0.73000002 6180423
0.044000003 0.0020000001 0.73200005 6706998
0.047000002 0.0065000001 0.73199999 6837815
0.0515 0.012 0.73100001 5919547
0.056500003 0.017500002 0.73150003 2302500
0.073000006 0.066 0.73400003 1579293
-0.10600001 -0.21600001 0.73800004 11184314
-0.098000005 -0.21850002 0.73600006 8749968
-0.066 -0.21600001 0.73900002 10592168
-0.112 -0.21400002 0.73900002 10986931
-0.109 -0.21300001 0.73600006 10592432
-0.058500003 -0.21100001 0.73500001 10855351
-0.052500002 -0.21200001 0.73800004 9540780
-0.11700001 -0.20600002 0.73500001 11316152
-0.115 -0.21000001 0.73800004 11447481
-0.048 -0.208 0.73500001 8949165
-0.045000002 -0.20900001 0.73800004 8554666
-0.039000001 -0.20500001 0.73500001 7765666
-0.127 -0.20100001 0.73700005 11579580
-0.12400001 -0.20400001 0.73800004 11710653
-0.030000001 -0.20200001 0.73800004 6845091
-0.18300001 -0.19600001 0.73700005 9538704
-0.17300001 -0.19900002 0.73500001 1774101
-0.13000001 -0.19700001 0.73600006 11841980
-0.024 -0.19900002 0.73800004 6582429
-0.17900001 -0.19000001 0.73700005 10526369
-0.17300001 -0.193 0.73600006 1316632
-0.132 -0.19400001 0.73500001 11775417
-0.021000002 -0.19500001 0.73600006 6188185
-0.018000001 -0.192 0.73500001 6253721
-0.18400002 -0.18700001 0.73600006 920591
-0.148 -0.186 0.73900002 9272687
-0.142 -0.18900001 0.73800004 11117229
-0.0135 -0.1875 0.73500001 6318746
-0.19350001 -0.18100001 0.73750007 1578005
-0.18766667 -0.18266667 0.7373333 1117712
-0.17 -0.18100001 0.73900002 7234912
-0.15700001 -0.18300001 0.73800004 9470067
-0.1525 -0.1825 0.73600006 10193012
-0.14500001 -0.185 0.73500001 10457491
-0.0090000005 -0.18300001 0.73600006 6581133
-0.17600001 -0.178 0.73900002 6904913
-0.17200001 -0.177 0.73600006 10063490
-0.16700001 -0.18000001 0.73700005 5721929
-0.163 -0.17900001 0.73500001 4801340
-0.0060000001 -0.18000001 0.73600006 6512730
-0.003 -0.177 0.73600006 6316125
0.0015 -0.177 0.73700005 3618352
0.0075000003 -0.177 0.73650002 9342338
0.012 -0.177 0.73600006 8882557
0.0165 -0.177 0.73650002 8159352
0.021000002 -0.177 0.73900002 7173236
-0.18200001 -0.171 0.73700005 12694175
-0.17900001 -0.17400001 0.73700005 10786699
0.024 -0.17400001 0.73600006 6581611
0.027000001 -0.17 0.73500001 6251621
0.030000001 -0.16800001 0.73700005 6383459
0.033 -0.16300002 0.73700005 6185304
0.033 -0.15800001 0.73500001 6119503
-0.19100001 -0.15150002 0.7385 14337184
0.033 -0.15233333 0.73633337 5986629
-0.19100001 -0.147 0.73800004 14861723
0.031500001 -0.14650001 0.73750007 6247740
-0.19000001 -0.14300001 0.73700005 14663826
0.027000001 -0.14300001 0.73600006 5918520
0.030000001 -0.14250001 0.7385 6773566
-0.19133334 -0.13833334 0.73733336 14729876
0.023000002 -0.13800001 0.73533338 3681564
0.027000001 -0.13850001 0.73750007 3089688
-0.19233334 -0.133 0.73666668 14663826
0.022500001 -0.13250001 0.7355001 4338973
0.027000001 -0.13250001 0.73800004 2365721
-0.193 -0.12800001 0.73800004 14466187
0.022500001 -0.12800001 0.73550004 4601892
0.027000001 -0.12800001 0.73800004 4075289
-0.193 -0.1235 0.73800004 14465670
-0.18900001 -0.12100001 0.73500001 13609840
0.018000001 -0.12200001 0.73500001 7756328
0.022500001 -0.1235 0.73625004 5126682
0.027000001 -0.1235 0.7385 6967849
-0.2485 -0.11700001 0.73550004 11641229
-0.24300002 -0.11700001 0.7385 10521198
-0.193 -0.11750001 0.73900002 14202751
-0.18900001 -0.11800001 0.73600006 6044693
0.0165 -0.1175 0.73600006 7755812
0.022500001 -0.11750001 0.73775005 7756322
0.027000001 -0.119 0.73900002 8019241
-0.24200001 -0.11400001 0.73600006 10520167
-0.23750001 -0.11250001 0.73750007 10452572
-0.23400001 -0.11100001 0.73800004 10386518
-0.19150001 -0.11150001 0.7385 9599058
-0.18900001 -0.11400001 0.73650002 4928284
0.012 -0.11150001 0.73550004 7295773
0.0165 -0.11150001 0.73775005 7558944
0.022 -0.11200001 0.73866671 8018985
-0.23250002 -0.1075 0.73700005 10648660
-0.19000001 -0.10700001 0.73800004 5717796
0.0090000005 -0.10700001 0.73500001 7098659
0.012 -0.10700001 0.73700005 7295779
0.0165 -0.10700001 0.7385 7624224
-0.22833335 -0.10300001 0.73600006 10714195
-0.22400001 -0.101 0.73800004 10714454
-0.19000001 -0.104 0.73800004 9597252
-0.186 -0.10300001 0.73500001 5124133
0.0090000005 -0.10250001 0.73650002 7164706
0.012 -0.10250001 0.7385 7164449
0.015000001 -0.10250001 0.73900002 7229985
-0.22166668 -0.097000003 0.73700005 10713934
-0.21800001 -0.095000006 0.73900002 10845260
-0.19000001 -0.096500009 0.73900002 13345885
-0.18699999 -0.098999999 0.73700005 8674869
0.0075000003 -0.096500002 0.73750001 6903082
0.012 -0.098000005 0.73900002 6704938
-0.21800001 -0.092000008 0.73700005 10451272
-0.186 -0.092500001 0.73750007 13410138
-0.18200001 -0.091000006 0.73500001 13476434
0.003 -0.092000008 0.73600006 6510137
0.0075000003 -0.092000008 0.7385 6704683
-0.21700001 -0.089000002 0.73500001 10449983
-0.21250001 -0.087500006 0.73700005 10384713
-0.186 -0.088000007 0.73900002 13212752
-0.18200001 -0.088000007 0.73600006 14067544
0.003 -0.087500006 0.73550004 6969651
0.0075000003 -0.087750003 0.73825002 4996132
-0.21400002 -0.085000001 0.73500001 10449983
-0.20766668 -0.082333334 0.73700005 8741962
-0.18300001 -0.085000001 0.73800004 13474894
-0.17833334 -0.083000004 0.73600006 12947001
0.003 -0.081500009 0.73550004 7363639
0.0070000007 -0.082333334 0.73766667 4996131
-0.32900003 -0.076000005 0.73900002 12495784
-0.20700002 -0.079000004 0.73500001 10055745
-0.20233335 -0.078000002 0.73666668 8151635
-0.19800001 -0.076000005 0.73800004 5720910
-0.177 -0.079000004 0.73800004 13012027
-0.1735 -0.077500001 0.73750007 12815161
-0.17 -0.076000005 0.73600006 12815160
0.003 -0.077000007 0.73600006 7494712
0.0060000001 -0.076499999 0.7385 5192220
-0.19800001 -0.073000006 0.73600006 10056519
-0.19500001 -0.073000006 0.73800004 7429716
-0.16850001 -0.073000006 0.73800004 12618037
-0.163 -0.072000004 0.73500001 12354865
0.0015 -0.072750002 0.73650002 7756335
-0.19266669 -0.068999998 0.73666668 10055236
-0.18900001 -0.067000002 0.73900002 10053949
-0.16250001 -0.07 0.73800004 11960364
-0.15700001 -0.069000006 0.73600006 11368236
-0.15333334 -0.067666672 0.73700005 6963471
-0.148 -0.066 0.73500001 4859139
-0.003 -0.066500008 0.73550004 7820845
0 -0.067500003 0.73800004 7689517
-0.18700001 -0.0625 0.73724997 10251052
-0.14500001 -0.064000003 0.73800004 4793610
-0.0060000001 -0.063000001 0.73600006 7754791
-0.003 -0.063000001 0.73800004 7622951
-0.18300001 -0.057 0.73666668 10446880
-0.18000001 -0.055000003 0.73900002 10512162
-0.13750002 -0.059 0.73800004 2964842
-0.133 -0.056000002 0.73750007 4284841
-0.0070000007 -0.058000002 0.73666668 7557411
-0.17750001 -0.052000001 0.73800004 10184225
-0.13000001 -0.052500002 0.73650002 5334174
-0.0060000001 -0.052500002 0.73750007 8150060
-0.17550001 -0.047500003 0.73600006 10382378
-0.17300001 -0.047500003 0.73800004 10382894
-0.17 -0.046000004 0.73800004 10712888
-0.13150001 -0.047000002 0.73700005 12489297
-0.003 -0.048 0.73800004 8020791
-0.16750002 -0.043000001 0.73550004 11174213
-0.162 -0.043000001 0.73800004 10648133
-0.15700001 -0.040000003 0.73500001 11570007
-0.1525 -0.040000003 0.73750007 12228192
-0.14700001 -0.040000003 0.7385 12162656
-0.142 -0.040000003 0.73600006 12359519
-0.13600001 -0.043000001 0.73700005 13148001
0.0015 -0.043500002 0.73700005 7954749
0.0060000001 -0.042000003 0.73900002 7889215
0.0075000003 -0.039000001 0.73650002 7824708
0.012 -0.036000002 0.73600006 7824452
0.0165 -0.036000002 0.7385 7824451
0.018000001 -0.033 0.73600006 7693633
0.022500001 -0.033 0.7385 8021312
0.022500001 -0.030000001 0.73550004 7890238
0.027000001 -0.028500002 0.73700005 8151864
0.031000001 -0.028333334 0.7383334 9595699
-0.24800001 -0.022000002 0.73500001 3026740
-0.24350001 -0.025 0.73500001 4143676
-0.23800001 -0.025 0.73500001 9401439
-0.23300001 -0.022000002 0.73800004 10256743
-0.22900002 -0.022000002 0.73500001 10780237
0.029000001 -0.024 0.73600006 8019764
0.032000002 -0.023000002 0.73650002 9003565
0.035999998 -0.023000002 0.73866671 9529389
-0.22600001 -0.019000001 0.73700005 11768949
-0.223 -0.016000001 0.73800004 10650738
0.036499999 -0.017500002 0.73675001 8347180
-0.2175 -0.011500001 0.73600006 6508878
0.038000003 -0.013 0.73600006 7624490
0.041000001 -0.011500001 0.7385 7820583
-0.21300001 -0.0070000002 0.73700005 5457221
0.042500004 -0.0070000002 0.73750007 7165230
-0.20850001 -0.0025000002 0.73650002 5260613
0.044000003 -0.0025000002 0.73650002 6837815
0.047000002 0.0020000001 0.73700005 6772791
0.050000001 0.0065000001 0.73699999 6443575
0.053000003 0.011000001 0.73600006 4603703
0.057500005 0.014 0.73699999 2763053
0.059000004 0.016000001 0.73500001 2697521
-0.10300001 -0.22000001 0.74100006 10197414
-0.11000001 -0.21800001 0.74200004 11381689
-0.063000001 -0.21600001 0.74100006 11513529
-0.059 -0.21700001 0.74300003 11974081
-0.119 -0.21200001 0.74300003 11710395
-0.048 -0.21300001 0.74200004 8686246
-0.12100001 -0.208 0.74000001 11776189
-0.042000003 -0.21000001 0.74100006 7962788
-0.036000002 -0.20600002 0.74000001 7634342
-0.033 -0.20700002 0.74400002 7108000
-0.171 -0.20300001 0.74100006 5519682
-0.13100001 -0.20300001 0.74400002 12367552
-0.027000001 -0.20400001 0.74300003 6910621
-0.021000002 -0.20100001 0.74400002 6187928
-0.171 -0.19850001 0.74100006 13483718
-0.13700001 -0.19600001 0.74200004 11840952
-0.134 -0.19900002 0.74200004 12169913
-0.018000001 -0.19700001 0.74200004 6187667
-0.17300001 -0.192 0.74150002 9932946
-0.14600001 -0.19000001 0.74200004 8616057
-0.13900001 -0.192 0.74000001 11642803
-0.0135 -0.192 0.74050003 6318482
-0.1785 -0.18800001 0.74100006 1774873
-0.17300001 -0.18800001 0.74349999 3353901
-0.15900001 -0.18800001 0.74400002 8287338
-0.15350001 -0.18700001 0.74200004 9140842
-0.0075000003 -0.1875 0.74199998 6645092
-0.186 -0.18100001 0.74000001 1117712
-0.18225001 -0.18350002 0.74250007 1248527
-0.17666668 -0.18400002 0.74366665 2827041
-0.17250001 -0.183 0.74200004 6313811
-0.16800001 -0.18400002 0.74200004 7498083
-0.16250001 -0.18400002 0.74050003 8287340
-0.0060000001 -0.18400002 0.74000001 6775899
-0.003 -0.183 0.74150002 6841177
0.001 -0.18266667 0.74300003 7236195
0.0075000003 -0.18200001 0.74300003 8092018
0.012 -0.18200001 0.74300003 9013891
0.0165 -0.18200001 0.74349999 8158840
-0.19600001 -0.17900001 0.74100006 2170142
-0.19100001 -0.17900001 0.74100006 1249297
-0.18700001 -0.17900001 0.74200004 1248524
-0.18350002 -0.17700002 0.74200004 5062200
-0.18000001 -0.178 0.74100006 5720642
0.024 -0.178 0.74300003 6515045
0.027000001 -0.17500001 0.74100006 6317666
-0.18700001 -0.17300001 0.74300003 12365476
0.030000001 -0.17200001 0.74200004 6252130
0.033 -0.16900001 0.74300003 6120540
0.036000002 -0.16600001 0.74300003 5855818
0.036000002 -0.163 0.74100006 6118992
0.063000001 -0.163 0.74400002 7765389
0.036000002 -0.1575 0.74000001 6118477
0.036000002 -0.15150002 0.74150002 6247998
-0.19500001 -0.148 0.74300003 14796706
0.036000002 -0.14650001 0.74349999 6773824
-0.1945 -0.14250001 0.74050003 14664606
0.033 -0.14250001 0.74100006 7233855
0.036000002 -0.142 0.74400002 7233091
0.031500001 -0.1365 0.74075007 7890230
0.036000002 -0.1365 0.74300003 7233591
0.031500001 -0.132 0.74050003 8020786
0.036000002 -0.132 0.74200004 7560755
-0.19750002 -0.1275 0.74200004 14796184
0.031500001 -0.1275 0.74050003 8085294
0.036000002 -0.1275 0.74200004 7691823
-0.252 -0.12100001 0.74100006 12498084
-0.2475 -0.12100001 0.74050003 11444108
-0.24300002 -0.12100001 0.74200004 10587252
-0.24000001 -0.12100001 0.74400002 10388842
-0.19700001 -0.123 0.74200004 14533269
0.031500001 -0.123 0.74050003 7953710
0.036000002 -0.123 0.74300003 8018986
-0.23750001 -0.11800001 0.74200004 10584937
-0.23300001 -0.11800001 0.74400002 10190179
-0.19750002 -0.11850001 0.74300003 14663051
0.027000001 -0.11700001 0.74000001 7953445
0.031500001 -0.11850001 0.74150002 8019497
0.036000002 -0.11850001 0.74400002 7887915
-0.23600002 -0.11400001 0.74100006 10452831
-0.23250002 -0.11250001 0.74100006 10452826
-0.22866668 -0.11233333 0.74333334 10715228
-0.19800001 -0.11100001 0.74400002 14334594
-0.193 -0.11000001 0.74000001 14203008
0.024 -0.11100001 0.74000001 8150572
0.027000001 -0.11250001 0.74050003 8084778
0.031500001 -0.1125 0.74275005 8084779
-0.22700001 -0.108 0.74150002 10780756
-0.193 -0.10700001 0.74000001 14136696
0.022500001 -0.108 0.74050003 8084779
0.027000001 -0.108 0.74200004 8150318
0.030000001 -0.108 0.74300003 8018732
-0.22250001 -0.10350001 0.74225008 10911062
-0.19700001 -0.101 0.74400002 14200942
-0.193 -0.10250001 0.74000001 13807215
0.018000001 -0.10350001 0.74000001 7164192
0.022500001 -0.10350001 0.74175 7887145
0.027000001 -0.10350001 0.74349999 7952939
0.030000001 -0.105 0.74400002 7821609
-0.2175 -0.097000003 0.74200004 10779731
-0.19850001 -0.096500009 0.74400002 6970722
-0.193 -0.096500009 0.74100006 13608035
0.012 -0.096000001 0.74000001 4403745
0.0165 -0.097500011 0.74125004 3942933
0.022 -0.098000012 0.74366665 7558439
-0.21400002 -0.092000008 0.74100006 8152143
-0.21000001 -0.092000008 0.74400002 5328216
-0.20300001 -0.092000008 0.74100006 5328213
-0.19850001 -0.092000008 0.74349999 5459028
-0.19150001 -0.092000008 0.74100006 13016669
0.012 -0.093000002 0.74000001 2563605
0.0165 -0.093000002 0.74300003 4732453
-0.21200001 -0.089000002 0.74000001 8548193
-0.20775001 -0.087500006 0.74200004 5590616
-0.20300001 -0.087500006 0.74300003 5131091
-0.19850001 -0.087500006 0.74374998 5262165
-0.19175 -0.087499999 0.74200004 10650204
0.012 -0.088500008 0.74100006 2629915
0.015000001 -0.090000004 0.74300003 2891278
-0.20200001 -0.083000004 0.74100006 5131353
-0.19800001 -0.081500009 0.74175 5065814
-0.19266666 -0.08200001 0.74366665 6641495
-0.18666668 -0.082666673 0.74200004 12685901
-0.18350002 -0.081 0.74100006 12749369
0.0090000005 -0.081 0.74000001 3024148
0.012 -0.082500003 0.74250007 5126949
-0.19600001 -0.076000005 0.74000001 5523801
-0.19150001 -0.077000007 0.74300003 5130580
-0.1825 -0.077000007 0.74349999 12354619
-0.1785 -0.077500001 0.74050003 12684087
0.0090000005 -0.076499999 0.74200004 6771256
0.012 -0.078000002 0.74400002 7231278
-0.19150001 -0.073500007 0.74150002 5196368
-0.18700001 -0.071000002 0.74400002 5326923
-0.178 -0.074000001 0.74400002 12289589
-0.17400001 -0.073000006 0.74100006 12420402
0.0075000003 -0.072000004 0.74250007 7755566
-0.18800001 -0.068499997 0.74100006 6443082
-0.171 -0.07 0.74200004 12354099
-0.16800001 -0.068499997 0.74250007 12222768
-0.16350001 -0.067000002 0.74150002 12353330
-0.15800001 -0.067000002 0.74000001 12157488
0.003 -0.067500003 0.74050003 7689773
0.0060000001 -0.069000006 0.74300003 7690288
-0.18233335 -0.062000003 0.74166673 9790769
-0.1575 -0.064000003 0.74349999 11696170
-0.15200001 -0.064000003 0.74200004 10710312
-0.14750001 -0.0625 0.74150002 6965283
-0.14300001 -0.061000004 0.74000001 6574145
0.0015 -0.063000001 0.74200004 7425573
-0.17833334 -0.057 0.7420001 10182946
-0.17400001 -0.055000003 0.74400002 10051622
-0.13850001 -0.056500003 0.74300003 2904728
-0.003 -0.058500003 0.74050003 7294240
0 -0.058500003 0.74349999 7425827
-0.17250001 -0.052000001 0.74300003 10249765
-0.13700001 -0.052000001 0.74400002 3890084
-0.134 -0.052000001 0.74100006 4939929
-0.003 -0.052500002 0.74050003 8018732
0 -0.052500002 0.74400002 7820842
-0.171 -0.049000002 0.74100006 10513968
-0.16750002 -0.047500003 0.74150002 10844220
-0.163 -0.046000004 0.74200004 10384446
-0.13700001 -0.047500003 0.74250007 11305551
-0.134 -0.049000002 0.74000001 11238978
0 -0.048 0.74100006 8086331
0.17400001 -0.049000002 0.74100006 6179909
-0.15800001 -0.043000001 0.74000001 9858107
-0.15400001 -0.043000001 0.74300003 12096871
-0.14600001 -0.043000001 0.74400002 11703137
-0.14300001 -0.043000001 0.74200004 12360550
-0.14 -0.043000001 0.74000001 12557409
0.003 -0.045000002 0.74100006 8020542
0.0075000003 -0.043500002 0.74300003 7824191
0.012 -0.042000003 0.74400002 7823935
0.012 -0.039000001 0.74000001 7758915
0.0165 -0.039000001 0.74250007 7890244
0.022500001 -0.036000002 0.74150002 8481864
0.027000001 -0.037 0.74300003 9531461
0.031500001 -0.037 0.74349999 9728315
0.027000001 -0.033 0.74000001 9334335
0.031500001 -0.033500001 0.74150002 9859385
0.037500001 -0.032500003 0.74250007 9989682
0.042000003 -0.031000001 0.74300003 10187061
0.045000002 -0.031000001 0.74400002 10187060
-0.278 -0.026000001 0.74000001 2697515
0.033 -0.030000001 0.74000001 9923890
0.037500001 -0.028000001 0.74050003 9857841
0.042000003 -0.028000001 0.74200004 9988913
0.045000002 -0.028000001 0.74400002 9922861
-0.24700001 -0.022000002 0.74100006 2631468
-0.23800001 -0.022000002 0.74300003 2890775
0.038000003 -0.025 0.74000001 9923121
0.042333335 -0.023000002 0.74166673 9528874
0.047000002 -0.024000002 0.74366665 9594411
-0.23100001 -0.019000001 0.74400002 4205856
0.042500004 -0.017500002 0.74075001 9003044
0.047000002 -0.017500002 0.74300003 9200166
0.044000003 -0.011500001 0.74100006 8082465
0.047000002 -0.011500001 0.74300003 8214303
0.047000002 -0.0070000002 0.74300003 7031837
0.047000002 -0.0025000002 0.74100006 6967079
0.050000001 0.0020000001 0.74300003 5981469
0.053000003 0.0080000004 0.74100006 4932150
0.056000002 0.011000001 0.74000001 4012349
-0.10700001 -0.22200002 0.74600005 5855074
-0.11300001 -0.21900001 0.74700004 11776186
-0.055000003 -0.21800001 0.74600005 11579579
-0.052000001 -0.21800001 0.74900001 11052981
-0.123 -0.21300001 0.74800003 12039357
-0.116 -0.215 0.74500006 11579068
-0.045000002 -0.21400002 0.74600005 8094881
-0.039000001 -0.21100001 0.74600005 7502752
-0.12800001 -0.20600002 0.74500006 12171202
-0.125 -0.21000001 0.74600005 12170946
-0.030000001 -0.20900001 0.74900001 6977180
-0.024 -0.20500001 0.74800003 6713240
-0.1365 -0.20250002 0.74849999 12498617
-0.018000001 -0.20200001 0.74900001 6121869
-0.141 -0.19700001 0.74700004 12037300
-0.015000001 -0.19800001 0.74700004 6252690
-0.17200001 -0.192 0.74500006 15262949
-0.15150002 -0.19150001 0.74650002 6510416
-0.147 -0.19500001 0.74900001 2498081
-0.14400001 -0.19400001 0.74500006 9997974
-0.012 -0.19500001 0.74600005 6121091
-0.0075000003 -0.19150001 0.74650002 6579036
-0.003 -0.192 0.74900001 7038812
-0.16750002 -0.18800001 0.74550009 6774877
-0.162 -0.18800001 0.74600005 7695461
-0.003 -0.18900001 0.74600005 6972501
0.0015 -0.18900001 0.74800003 7104604
0.0075000003 -0.186 0.74750006 7170401
0.012 -0.186 0.74900001 7433572
0.003 -0.185 0.74600005 7236193
0.021000002 -0.18200001 0.74600005 6909034
0.025 -0.18300001 0.74900001 6843494
-0.18700001 -0.17600001 0.74500006 2035982
0.027000001 -0.17900001 0.74700004 6514786
0.030000001 -0.17600001 0.74600005 6186077
0.052000001 -0.177 0.74800003 7896977
0.033 -0.17300001 0.74700004 5791318
0.058000002 -0.17300001 0.74600005 6712444
0.061000004 -0.171 0.74800003 2567482
0.037 -0.17 0.74800003 5987150
0.040000003 -0.16700001 0.74900001 5921093
0.039000001 -0.16250001 0.74650002 6184013
0.039000001 -0.15700001 0.74600005 6316367
0.039000001 -0.1525 0.74650002 6839878
0.039000001 -0.14650001 0.74700004 6050101
0.039000001 -0.142 0.74700004 2235658
-0.19900002 -0.13900001 0.74700004 15190697
0.039000001 -0.13750002 0.74550009 1907477
0.042000003 -0.13800001 0.74900001 5985336
0.039000001 -0.13150001 0.74500006 2301460
0.042000003 -0.13150001 0.74900001 4734253
0.039000001 -0.127 0.74500006 2628371
0.042000003 -0.127 0.74900001 6378046
-0.25100002 -0.125 0.74600005 12695209
-0.24700001 -0.125 0.74500006 11444111
-0.24250001 -0.125 0.74550009 10455928
-0.23666668 -0.12366667 0.74733335 11573128
-0.23250002 -0.12200001 0.74750006 12231057
0.039000001 -0.1225 0.74550009 3153933
-0.23100001 -0.11800001 0.74600005 10191207
-0.22800002 -0.11800001 0.74700004 4733231
-0.22500001 -0.11800001 0.74900001 3485486
0.039000001 -0.11800001 0.74700004 6442791
-0.22700001 -0.115 0.74600005 10257255
-0.22275001 -0.1135 0.7475 7103326
-0.19800001 -0.11400001 0.74500006 14729097
0.037 -0.11366668 0.74700004 7953452
-0.22250001 -0.108 0.74550009 6900794
-0.21800001 -0.109 0.74800003 3551280
-0.215 -0.10600001 0.74900001 5130317
-0.19800001 -0.108 0.74500006 14530939
0.033 -0.108 0.74500006 7887403
0.036000002 -0.1075 0.74849999 7887403
-0.22000001 -0.105 0.74500006 9138781
-0.2175 -0.10350001 0.74650002 6379605
-0.213 -0.10200001 0.74849999 4144194
-0.20100001 -0.10200001 0.74700004 6049618
-0.19800001 -0.105 0.74500006 14332533
0.032000002 -0.10333335 0.74600005 7821353
-0.31800002 -0.096000001 0.74500006 13549223
-0.21700001 -0.099000007 0.74500006 9335652
-0.21225001 -0.097500011 0.74675006 5393751
-0.20700002 -0.096000001 0.74600005 5393494
-0.19800001 -0.098000005 0.74500006 13282187
0.024 -0.096000001 0.74500006 7558952
0.027000001 -0.097500004 0.74550009 7690024
0.031000001 -0.098666668 0.74766666 7623973
-0.20700002 -0.093000002 0.74500006 5589592
0.023000002 -0.092333339 0.74666673 7361067
0.027000001 -0.092500001 0.74849999 5718046
0.030000001 -0.094000004 0.74900001 7032104
0.017000001 -0.088000007 0.74566674 6573616
0.022 -0.088666677 0.74799997 5980966
-0.19100001 -0.080000006 0.74500006 5328218
0.0165 -0.083000004 0.74725002 7165232
0.021000002 -0.085000001 0.74900001 5719332
-0.18800001 -0.077000007 0.74600005 6444114
0.012 -0.075000003 0.74600005 7428403
0.015000001 -0.077500001 0.74849999 7230509
-0.18800001 -0.074000001 0.74600005 5131346
-0.18325001 -0.072500005 0.74675 7822670
-0.17650001 -0.071000002 0.74550009 11696950
0.012 -0.073000006 0.74800003 7689516
-0.18233335 -0.067000002 0.74633336 5457226
