# .PCD v0.7 - Point Cloud Data file format
VERSION 0.7
FIELDS x y z rgb
SIZE 4 4 4 4
TYPE F F F U
COUNT 1 1 1 1
WIDTH 1212
HEIGHT 1
VIEWPOINT 0 0 0 1 0 0 0
POINTS 1212
DATA ascii
0.034000002 0.16100001 0.84100002 9200228
0.037 0.16100001 0.84100002 8870749
0.041000001 0.16100001 0.84000003 8607318
0.044000003 0.16100001 0.83900005 8935768
0.047000002 0.16100001 0.83900005 8410197
0.051000003 0.16000001 0.83800006 9001819
0.054000001 0.16100001 0.83800006 8870490
0.058000002 0.16100001 0.83800006 9330526
0.061000004 0.16100001 0.83800006 9266018
0.064000003 0.16100001 0.83900005 9332073
0.068000004 0.16100001 0.84000003 10912137
0.071000002 0.16100001 0.84000003 8153982
0.075000003 0.16100001 0.84100002 7302003
0.078000002 0.162 0.84200007 9138298
0.082000002 0.162 0.84300005 9070697
0.085000001 0.162 0.84300005 9202539
0.089000002 0.162 0.84500003 9136491
0.092000008 0.162 0.84600002 8281437
0.096000001 0.163 0.84800005 8416109
0.1 0.163 0.85000002 11709363
0.104 0.164 0.85300004 12896470
-0.003 0.16800001 0.85900003 7104630
0 0.16700001 0.85600007 8089203
0.0040000002 0.16700001 0.85400003 8740961
0.0070000002 0.16700001 0.85300004 8542549
0.011000001 0.16600001 0.85000002 9266016
0.014 0.16600001 0.84700006 8673113
0.017000001 0.16500001 0.84500003 6964810
0.021000002 0.164 0.84100002 6175294
0.024 0.164 0.83900005 7620939
0.027000001 0.164 0.83700001 9462114
0.031000001 0.163 0.83600003 8935770
0.034000002 0.163 0.83400005 8803929
0.037 0.163 0.83300006 8079946
0.040000003 0.163 0.83200002 8606036
0.044000003 0.163 0.83200002 8013897
0.047000002 0.163 0.83100003 8277328
0.050000001 0.163 0.83100003 8737876
0.054000001 0.163 0.83100003 8606032
0.057000004 0.163 0.83100003 9658975
0.060000002 0.163 0.83100003 9725537
0.064000003 0.163 0.83200002 9200226
0.067000002 0.163 0.83200002 9463916
0.071000002 0.163 0.83300006 7034730
0.074000001 0.163 0.83400005 6640743
0.078000002 0.164 0.83600003 9793652
0.081 0.164 0.83700001 9266531
0.085000001 0.164 0.83700001 9724516
0.088000007 0.16500001 0.83900005 9266274
0.092000008 0.16500001 0.84000003 9069154
0.095000006 0.16500001 0.84200007 9529452
0.099000007 0.16500001 0.84300005 8018269
0.10300001 0.16600001 0.84600002 8086636
0.10600001 0.16700001 0.84800005 10129303
0.11000001 0.16700001 0.85000002 13157587
-0.010000001 0.171 0.85900003 6910074
-0.0070000002 0.171 0.85600007 7959423
-0.003 0.17 0.85300004 8542557
0 0.17 0.85100001 8673883
0.0040000002 0.16900001 0.84900004 8673114
0.0070000002 0.16900001 0.84700006 9396067
0.010000001 0.16800001 0.84400004 7423562
0.014 0.16800001 0.84000003 5779764
0.017000001 0.16700001 0.83700001 6371388
0.020000001 0.16600001 0.83400005 8607832
0.024 0.16600001 0.83100003 9330787
0.027000001 0.16600001 0.83000004 9264734
0.030000001 0.16500001 0.82900006 8671826
0.034000002 0.16500001 0.82800007 8737619
0.037 0.16500001 0.82700002 8474448
0.040000003 0.16500001 0.82600003 8342862
0.043000001 0.16500001 0.82600003 8277070
0.047000002 0.16500001 0.82500005 8079690
0.050000001 0.16500001 0.82500005 8277069
0.053000003 0.16500001 0.82500005 7948615
0.057000004 0.16500001 0.82500005 9264473
0.060000002 0.16500001 0.82400006 9330007
0.063000001 0.16500001 0.82500005 9264475
0.067000002 0.16500001 0.82500005 7950420
0.07 0.16500001 0.82600003 6309976
0.074000001 0.16500001 0.82700002 5852763
0.077000007 0.16600001 0.82900006 8475735
0.081 0.16600001 0.82900006 9068123
0.084000006 0.16600001 0.83000004 9265499
0.088000007 0.16700001 0.83200002 9068895
0.091000006 0.16700001 0.83400005 9330269
0.095000006 0.16700001 0.83600003 9264989
0.098000005 0.16800001 0.83800006 9265758
0.10200001 0.16800001 0.84000003 8939109
0.10600001 0.16900001 0.84200007 7032403
0.109 0.16900001 0.84400004 8349809
0.11300001 0.17 0.84700006 9801112
0.11700001 0.17 0.84800005 10725812
-0.013 0.17400001 0.85500002 7959932
-0.010000001 0.17400001 0.85200006 8413541
-0.0070000002 0.17300001 0.85000002 9330268
-0.003 0.17300001 0.84800005 8804955
0 0.17200001 0.84600002 9067612
0.0040000002 0.17200001 0.84300005 9264993
0.0070000002 0.171 0.84000003 7028803
0.010000001 0.17 0.83600003 5714486
0.014 0.17 0.83300006 6569794
0.017000001 0.16900001 0.83000004 9264734
0.020000001 0.16900001 0.82800007 9264220
0.024 0.16800001 0.82600003 9198170
0.027000001 0.16800001 0.82500005 9132118
0.030000001 0.16800001 0.82400006 8803153
0.033 0.16800001 0.82300001 8408137
0.037 0.16700001 0.82200003 8473675
0.040000003 0.16700001 0.82100004 9132118
0.043000001 0.16700001 0.82000005 8671824
0.046000004 0.16700001 0.81900007 8540493
0.050000001 0.16700001 0.81900007 8408650
0.053000003 0.16700001 0.81900007 8211012
0.056000002 0.16700001 0.81900007 9197906
0.060000002 0.16700001 0.81900007 9329490
0.063000001 0.16700001 0.81900007 8606285
0.066 0.16700001 0.81900007 7817296
0.07 0.16700001 0.82000005 4536904
0.073000006 0.16800001 0.82100004 5718344
0.077000007 0.16800001 0.82200003 7817804
0.080000006 0.16800001 0.82300001 9133147
0.083000004 0.16800001 0.82400006 9264474
0.087000005 0.16900001 0.82600003 8936280
0.091000006 0.16900001 0.82800007 9067866
0.094000004 0.17 0.83000004 9199452
0.098000005 0.17 0.83200002 9133659
0.101 0.171 0.83400005 8871258
0.105 0.171 0.83700001 9594468
0.109 0.17200001 0.83900005 7162188
0.11300001 0.17200001 0.84100002 7756382
0.116 0.17300001 0.84300005 8875376
0.12 0.17300001 0.84600002 8156542
-0.020000001 0.178 0.85800004 5921384
-0.017000001 0.177 0.85400003 7299174
-0.013 0.177 0.85000002 8149595
-0.010000001 0.17600001 0.84800005 8804694
-0.0070000002 0.17600001 0.84500003 9130838
-0.003 0.17500001 0.84300005 9264991
0 0.17500001 0.84000003 9198682
0.0040000002 0.17400001 0.83700001 6897728
0.0070000002 0.17300001 0.83300006 4662827
0.010000001 0.17200001 0.82900006 6635591
0.014 0.17200001 0.82600003 9198423
0.017000001 0.171 0.82500005 9592667
0.020000001 0.171 0.82300001 9395288
0.023000002 0.171 0.82200003 9525589
0.027000001 0.171 0.82100004 9393746
0.030000001 0.17 0.82000005 9590865
0.033 0.17 0.81900007 8867913
0.037 0.17 0.81900007 9130574
0.040000003 0.17 0.81800002 9262418
0.043000001 0.17 0.81700003 9064783
0.046000004 0.17 0.81600004 8999503
0.050000001 0.17 0.81600004 9327953
0.053000003 0.17 0.81500006 8867915
0.056000002 0.16900001 0.81400001 9394259
0.059000004 0.16900001 0.81400001 9197905
0.063000001 0.16900001 0.81400001 8408906
0.066 0.16900001 0.81400001 7685194
0.069000006 0.17 0.81500006 4141885
0.073000006 0.17 0.81600004 5783108
0.076000005 0.17 0.81700003 7948101
0.080000006 0.17 0.81800002 8869457
0.083000004 0.171 0.81900007 9197651
0.086000003 0.171 0.82000005 8540748
0.090000004 0.171 0.82200003 8869714
0.094000004 0.17200001 0.82400006 8738129
0.097000003 0.17200001 0.82600003 8738129
0.101 0.17300001 0.82800007 8934991
0.105 0.17400001 0.83100003 9263961
0.108 0.17400001 0.83300006 9133919
0.112 0.17500001 0.83600003 7162701
0.116 0.17500001 0.83900005 6966093
0.12 0.17600001 0.84100002 8545639
0.123 0.17600001 0.84300005 6706523
-0.024 0.18100001 0.85600007 5985632
-0.020000001 0.18100001 0.85300004 8216933
-0.017000001 0.18000001 0.84800005 8673108
-0.013 0.17900001 0.84500003 8868945
-0.010000001 0.17900001 0.84300005 8935251
-0.0060000001 0.178 0.84000003 9461081
-0.003 0.178 0.83800006 8870487
0 0.177 0.83500004 6700350
0.0040000002 0.17600001 0.83100003 4991018
0.0070000002 0.17500001 0.82600003 6570304
0.010000001 0.17400001 0.82300001 8869973
0.013 0.17400001 0.82100004 9393746
0.017000001 0.17400001 0.82000005 9656154
0.020000001 0.17300001 0.81800002 6504506
0.023000002 0.17300001 0.81700003 6569014
0.027000001 0.17300001 0.81700003 7948355
0.030000001 0.17300001 0.81600004 9263701
0.033 0.17300001 0.81500006 9327950
0.036000002 0.17300001 0.81500006 9065039
0.040000003 0.17300001 0.81400001 9524821
0.043000001 0.17300001 0.81400001 9000271
0.046000004 0.17200001 0.81300002 8736588
0.049000002 0.17200001 0.81200004 9392977
0.053000003 0.17200001 0.81100005 7749945
0.056000002 0.17200001 0.81000006 8145986
0.059000004 0.17200001 0.81000006 9393489
0.062000003 0.17200001 0.81000006 8012865
0.066 0.17200001 0.81000006 7028291
0.069000006 0.17200001 0.81100005 3746873
0.072000004 0.17300001 0.81200004 6635072
0.076000005 0.17300001 0.81200004 7881538
0.079000004 0.17300001 0.81300002 9000783
0.083000004 0.17300001 0.81400001 9066830
0.086000003 0.17300001 0.81500006 9460821
0.089000002 0.17400001 0.81600004 8737355
0.093000002 0.17400001 0.81800002 9198164
0.096000001 0.17500001 0.82000005 8671820
0.1 0.17500001 0.82200003 8803407
0.104 0.17600001 0.82400006 8803662
0.10700001 0.17600001 0.82700002 8936020
0.11100001 0.177 0.83000004 9331295
0.115 0.178 0.83300006 7687240
0.119 0.17900001 0.83700001 7162698
0.123 0.17900001 0.83900005 8742760
0.126 0.17900001 0.84000003 8875376
-0.027000001 0.185 0.85500002 7498097
-0.024 0.18400002 0.85100001 7821659
-0.020000001 0.18300001 0.84700006 8213327
-0.017000001 0.18200001 0.84300005 8409934
-0.013 0.18200001 0.84000003 8802897
-0.010000001 0.18100001 0.83800006 9396059
-0.0060000001 0.18000001 0.83500004 8738129
-0.003 0.18000001 0.83200002 6700607
0 0.17900001 0.82800007 4333605
0.0040000002 0.178 0.82400006 6176573
0.0070000002 0.177 0.82000005 9066328
0.010000001 0.177 0.81800002 8935251
0.013 0.17600001 0.81600004 8869197
0.017000001 0.17600001 0.81500006 8803410
0.020000001 0.17600001 0.81400001 3482655
0.023000002 0.17600001 0.81300002 3743777
0.026000001 0.17600001 0.81200004 5716022
0.030000001 0.17500001 0.81100005 9329237
0.033 0.17500001 0.81000006 5123881
0.036000002 0.17500001 0.80900002 3481381
0.039000001 0.17500001 0.80900002 3088936
0.043000001 0.17500001 0.80800003 3942186
0.046000004 0.17500001 0.80800003 5584696
0.049000002 0.17500001 0.80700004 7556428
0.052000001 0.17400001 0.80600005 6635321
0.056000002 0.17400001 0.80600005 7818048
0.059000004 0.17400001 0.80600005 9001038
0.062000003 0.17400001 0.80500007 7487291
0.065000005 0.17500001 0.80600005 6569278
0.069000006 0.17500001 0.80700004 3681338
0.072000004 0.17500001 0.80700004 7224635
0.075000003 0.17500001 0.80800003 7814201
0.079000004 0.17500001 0.80800003 9196872
0.082000002 0.17500001 0.80900002 9198669
0.085000001 0.17600001 0.81000006 9328973
0.089000002 0.17600001 0.81100005 9262925
0.092000008 0.17600001 0.81300002 9460562
0.096000001 0.177 0.81500006 9526357
0.1 0.177 0.81700003 9000014
0.10300001 0.178 0.81900007 8933963
0.10700001 0.17900001 0.82200003 8737610
0.11100001 0.17900001 0.82500005 8869970
0.11400001 0.18000001 0.82800007 9528414
0.11800001 0.18100001 0.83100003 7358531
0.12200001 0.18200001 0.83500004 6834503
0.126 0.18200001 0.83700001 8807269
0.13000001 0.18300001 0.83900005 8479331
-0.031000001 0.18800001 0.85400003 7234670
-0.027000001 0.18700001 0.85000002 8869715
-0.024 0.186 0.84600002 8606286
-0.020000001 0.185 0.84200007 8539210
-0.017000001 0.185 0.83800006 8671309
-0.013 0.18400002 0.83500004 8804691
-0.010000001 0.18300001 0.83300006 9001044
-0.0060000001 0.18300001 0.83000004 6897985
-0.003 0.18200001 0.82700002 5057326
0 0.18100001 0.82200003 6242112
0.0040000002 0.18000001 0.81800002 8673105
0.0070000002 0.17900001 0.81500006 9000530
0.010000001 0.17900001 0.81300002 9065809
0.013 0.17900001 0.81200004 9001043
0.017000001 0.17900001 0.81100005 6110008
0.020000001 0.178 0.81000006 4336429
0.023000002 0.178 0.81000006 8936534
0.026000001 0.178 0.80900002 9197397
0.030000001 0.178 0.80700004 8344401
0.033 0.178 0.80600005 3809827
0.036000002 0.177 0.80500007 3088427
0.039000001 0.177 0.80400002 2695205
0.042000003 0.177 0.80300003 3023397
0.046000004 0.177 0.80300003 3023399
0.049000002 0.177 0.80300003 3154988
0.052000001 0.177 0.80200005 3811374
0.055000003 0.177 0.80100006 8739149
0.059000004 0.177 0.80200005 9065545
0.062000003 0.177 0.80200005 7356476
0.065000005 0.177 0.80200005 5190968
0.068000004 0.177 0.80300003 3091255
0.072000004 0.178 0.80400002 7091253
0.075000003 0.178 0.80400002 8078140
0.078000002 0.178 0.80400002 9196615
0.082000002 0.178 0.80500007 9525323
0.085000001 0.178 0.80500007 9196104
0.088000007 0.178 0.80700004 9196362
0.092000008 0.17900001 0.80900002 9197132
0.095000006 0.17900001 0.81000006 9262926
0.099000007 0.18000001 0.81200004 9394512
0.10300001 0.18000001 0.81400001 9196878
0.10600001 0.18100001 0.81700003 8408133
0.11000001 0.18100001 0.81900007 8474696
0.11400001 0.18200001 0.82200003 9132370
0.11700001 0.18300001 0.82500005 9397085
0.12100001 0.18400002 0.82900006 6569789
0.125 0.185 0.83300006 7162185
0.12900001 0.186 0.83600003 9529701
0.133 0.186 0.83900005 8609629
0.13700001 0.186 0.83800006 4337711
-0.034000002 0.192 0.85300004 7104109
-0.031000001 0.19100001 0.84900004 8148568
-0.027000001 0.19000001 0.84500003 8474700
-0.023000002 0.18900001 0.84100002 8606287
-0.020000001 0.18800001 0.83700001 8670538
-0.017000001 0.18700001 0.83300006 8935766
-0.013 0.186 0.83100003 9263189
-0.010000001 0.186 0.82800007 7094592
-0.0060000001 0.185 0.82500005 5057588
-0.003 0.18400002 0.82100004 5912637
0 0.18300001 0.81700003 7818828
0.0040000002 0.18200001 0.81300002 9263186
0.0070000002 0.18200001 0.81100005 9328981
0.010000001 0.18200001 0.80900002 9262928
0.013 0.18100001 0.80800003 9001296
0.017000001 0.18100001 0.80700004 4138273
0.020000001 0.18100001 0.80700004 4337723
0.023000002 0.18100001 0.80600005 9395541
0.026000001 0.18100001 0.80600005 8935758
0.030000001 0.18100001 0.80500007 8868949
0.033 0.18100001 0.80400002 8738895
0.036000002 0.18000001 0.80200005 8410192
0.039000001 0.18000001 0.80100006 8869453
0.042000003 0.17900001 0.79900002 8607314
0.045000002 0.17900001 0.79900002 4074800
0.049000002 0.17900001 0.79800004 3416873
0.052000001 0.17900001 0.79800004 7821140
0.055000003 0.17900001 0.79700005 8541518
0.058000002 0.17900001 0.79700005 8212037
0.062000003 0.17900001 0.79800004 7092793
0.065000005 0.17900001 0.79800004 4139821
0.068000004 0.18000001 0.79900002 3220534
0.071000002 0.18000001 0.80000001 7092278
0.075000003 0.18000001 0.80000001 8079426
0.078000002 0.18000001 0.80000001 9131850
0.081 0.18000001 0.80100006 8933702
0.085000001 0.18000001 0.80100006 9197132
0.088000007 0.18100001 0.80300003 8537919
0.091000006 0.18100001 0.80400002 8735811
0.095000006 0.18200001 0.80600005 9393741
0.099000007 0.18200001 0.80800003 9065289
0.10200001 0.18300001 0.81000006 8473409
0.10600001 0.18300001 0.81200004 8604995
0.109 0.18400002 0.81500006 8670536
0.11300001 0.18400002 0.81700003 8868427
0.11700001 0.185 0.82000005 9264728
0.12100001 0.186 0.82400006 8871000
0.125 0.18700001 0.82800007 6175288
0.12900001 0.18800001 0.83200002 7556427
0.133 0.18900001 0.83600003 9265757
0.13700001 0.19000001 0.83800006 9069917
0.14 0.19000001 0.83700001 8351596
-0.038000003 0.19500001 0.85200006 6971496
-0.034000002 0.19400001 0.84800005 8674908
-0.030000001 0.193 0.84400004 8408907
-0.027000001 0.192 0.84000003 8409164
-0.023000002 0.19100001 0.83500004 8211528
-0.020000001 0.19000001 0.83100003 8473674
-0.016000001 0.18900001 0.82800007 9132630
-0.013 0.18900001 0.82600003 7620674
-0.010000001 0.18800001 0.82300001 5387065
-0.0060000001 0.18700001 0.82000005 5124409
-0.003 0.18700001 0.81600004 7621194
0 0.186 0.81200004 9198163
0.0040000002 0.185 0.80900002 9132370
0.0070000002 0.18400002 0.80700004 9132370
0.010000001 0.18400002 0.80600005 9132370
0.013 0.18400002 0.80500007 9132370
0.016000001 0.18400002 0.80400002 5845292
0.020000001 0.18400002 0.80400002 3350564
0.023000002 0.18400002 0.80300003 3417647
0.026000001 0.18300001 0.80200005 6242113
0.029000001 0.18300001 0.80000001 7688010
0.033 0.18300001 0.79900002 9001557
0.036000002 0.18300001 0.79800004 8870227
0.039000001 0.18200001 0.79600006 9067605
0.042000003 0.18200001 0.79500002 8541262
0.045000002 0.18200001 0.79400003 4598572
0.048 0.18200001 0.79400003 7228747
0.052000001 0.18200001 0.79400003 9198677
0.055000003 0.18200001 0.79400003 9131596
0.058000002 0.18200001 0.79400003 8474436
0.061000004 0.18200001 0.79400003 7027513
0.065000005 0.18200001 0.79500002 3090739
0.068000004 0.18200001 0.79500002 3287605
0.071000002 0.18200001 0.79600006 7027511
0.074000001 0.18200001 0.79600006 8341827
0.078000002 0.18300001 0.79600006 9195846
0.081 0.18300001 0.79700005 9064518
0.084000006 0.18300001 0.79800004 8932934
0.088000007 0.18300001 0.79900002 8603712
0.091000006 0.18400002 0.80100006 8472126
0.095000006 0.18400002 0.80200005 9064263
0.098000005 0.185 0.80400002 8801091
0.10200001 0.185 0.80500007 8670020
0.105 0.186 0.80800003 8933190
0.109 0.186 0.81000006 8538689
0.112 0.18700001 0.81200004 8999753
0.116 0.18800001 0.81500006 9263183
0.12 0.18800001 0.81800002 9133399
0.12400001 0.19000001 0.82300001 7162180
0.12800001 0.19100001 0.82700002 6833475
0.132 0.192 0.83200002 8674649
0.13600001 0.193 0.83500004 8411472
0.14 0.193 0.83700001 8347483
0.14300001 0.193 0.83600003 4140594
-0.041000001 0.19800001 0.85100001 5593443
-0.037 0.19800001 0.84800005 8150113
-0.034000002 0.19700001 0.84400004 8541520
-0.030000001 0.19500001 0.83900005 8473673
-0.027000001 0.19400001 0.83500004 8277838
-0.023000002 0.193 0.83000004 8276807
-0.020000001 0.193 0.82700002 9131604
-0.016000001 0.192 0.82400006 8541523
-0.013 0.19100001 0.82100004 6044732
-0.010000001 0.19000001 0.81800002 4401200
-0.0060000001 0.18900001 0.81400001 6438980
-0.003 0.18900001 0.81100005 8672594
0 0.18800001 0.80800003 9197909
0.0040000002 0.18700001 0.80500007 8802379
0.0070000002 0.18700001 0.80400002 9065037
0.010000001 0.18700001 0.80300003 8934480
0.013 0.18700001 0.80200005 9263702
0.016000001 0.186 0.80100006 8739415
0.020000001 0.186 0.80100006 3876394
0.023000002 0.186 0.80000001 3287089
0.026000001 0.186 0.79900002 3416101
0.029000001 0.186 0.79800004 3220519
0.032000002 0.185 0.79600006 3155754
0.036000002 0.185 0.79500002 3352363
0.039000001 0.185 0.79400003 3418156
0.042000003 0.185 0.79300004 3154727
0.045000002 0.185 0.79200006 6570822
0.048 0.185 0.79200006 9197644
0.051000003 0.18400002 0.79100001 8868680
0.055000003 0.18400002 0.79100001 8736842
0.058000002 0.18400002 0.79100001 8275255
0.061000004 0.18400002 0.79100001 7028283
0.064000003 0.185 0.79100001 2500661
0.068000004 0.185 0.79200006 3286576
0.071000002 0.185 0.79200006 7027514
0.074000001 0.185 0.79300004 8801864
0.077000007 0.185 0.79300004 9458763
0.081 0.185 0.79400003 9326919
0.084000006 0.186 0.79500002 8735299
0.087000005 0.186 0.79600006 8603970
0.091000006 0.186 0.79700005 8603455
0.094000004 0.18700001 0.79900002 8998472
0.098000005 0.18700001 0.80000001 8537149
0.101 0.18800001 0.80200005 8472127
0.105 0.18800001 0.80400002 8735555
0.108 0.18900001 0.80600005 8538434
0.112 0.18900001 0.80800003 9065035
0.116 0.19000001 0.81100005 8933447
0.119 0.19100001 0.81400001 9067601
0.123 0.192 0.81800002 8871253
0.127 0.193 0.82200003 5846837
0.132 0.19400001 0.82700002 6965836
0.13600001 0.19500001 0.83200002 8937048
0.14 0.19600001 0.83500004 8214607
0.14300001 0.19600001 0.83500004 7297367
-0.041000001 0.20100001 0.84700006 7888476
-0.037 0.2 0.84400004 9132380
-0.034000002 0.19900002 0.84000003 8278092
-0.030000001 0.19800001 0.83500004 8934995
-0.027000001 0.19700001 0.83000004 8474446
-0.023000002 0.19600001 0.82600003 8868945
-0.020000001 0.19500001 0.82300001 9131347
-0.016000001 0.19400001 0.82000005 6502970
-0.013 0.19400001 0.81700003 4729389
-0.010000001 0.193 0.81300002 5847869
-0.0060000001 0.192 0.80900002 8212817
-0.003 0.19100001 0.80700004 9131088
0 0.19100001 0.80500007 9262673
0.0040000002 0.19000001 0.80200005 8868683
0.0070000002 0.19000001 0.80100006 9065294
0.010000001 0.19000001 0.80000001 9196625
0.013 0.18900001 0.79800004 6173231
0.016000001 0.18900001 0.79700005 5452084
0.020000001 0.18900001 0.79600006 7822176
0.023000002 0.18900001 0.79600006 7429217
0.026000001 0.18800001 0.79400003 5062211
0.029000001 0.18800001 0.79300004 3221034
0.032000002 0.18800001 0.79300004 3286568
0.035 0.18800001 0.79200006 4074026
0.039000001 0.18800001 0.79100001 6899522
0.042000003 0.18700001 0.79000002 8540743
0.045000002 0.18700001 0.78900003 9459534
0.048 0.18700001 0.78900003 9327948
0.051000003 0.18700001 0.78900003 9196362
0.054000001 0.18700001 0.78800005 9195848
0.058000002 0.18700001 0.78800005 8012604
0.061000004 0.18700001 0.78800005 7027513
0.064000003 0.18700001 0.78800005 3418677
0.067000002 0.18700001 0.78900003 4337207
0.071000002 0.18700001 0.78900003 7487290
0.074000001 0.18800001 0.79000002 9261642
0.077000007 0.18800001 0.79000002 9853262
0.080000006 0.18800001 0.79100001 9261640
0.084000006 0.18800001 0.79200006 8538433
0.087000005 0.18800001 0.79200006 8735556
0.091000006 0.18900001 0.79400003 8603712
0.094000004 0.18900001 0.79500002 8472126
0.097000003 0.19000001 0.79600006 9064263
0.101 0.19000001 0.79800004 8406335
0.104 0.19100001 0.80000001 8538433
0.108 0.19100001 0.80200005 8604741
0.112 0.192 0.80500007 9065547
0.115 0.193 0.80700004 9065805
0.119 0.193 0.80900002 8409154
0.123 0.19400001 0.81200004 9132881
0.127 0.19500001 0.81700003 7554884
0.13100001 0.19600001 0.82200003 6308422
0.13500001 0.19800001 0.82700002 8213845
0.13900001 0.19900002 0.83100003 8870225
0.14300001 0.19900002 0.83300006 8148560
0.147 0.19900002 0.83300006 5849407
-0.044000003 0.20500001 0.84800005 6904415
-0.041000001 0.20400001 0.84400004 9066837
-0.037 0.20300001 0.84000003 9066324
-0.034000002 0.20200001 0.83600003 8474443
-0.030000001 0.2 0.83000004 8407876
-0.026000001 0.19900002 0.82600003 8736844
-0.023000002 0.19800001 0.82200003 8737618
-0.020000001 0.19800001 0.81900007 7948610
-0.016000001 0.19700001 0.81600004 5846841
-0.013 0.19600001 0.81200004 4925998
-0.010000001 0.19500001 0.80800003 7489092
-0.0060000001 0.19400001 0.80500007 9197397
-0.003 0.19400001 0.80300003 8999246
0 0.193 0.80100006 9197136
0.003 0.193 0.79900002 8868688
0.0070000002 0.192 0.79800004 9196621
0.010000001 0.192 0.79700005 9065293
0.013 0.192 0.79600006 4334631
0.016000001 0.192 0.79500002 3416104
0.020000001 0.19100001 0.79400003 3482409
0.023000002 0.19100001 0.79300004 3678247
0.026000001 0.19100001 0.79200006 3811629
0.029000001 0.19100001 0.79100001 4273974
0.032000002 0.19100001 0.79100001 6571591
0.035 0.19000001 0.78900003 8345681
0.039000001 0.19000001 0.78800005 8738895
0.042000003 0.19000001 0.78700006 9327688
0.045000002 0.19000001 0.78600001 8999753
0.048 0.19000001 0.78600001 8868167
0.051000003 0.19000001 0.78600001 9064774
0.054000001 0.19000001 0.78500003 9196360
0.058000002 0.19000001 0.78500003 8011574
0.061000004 0.19000001 0.78500003 7027768
0.064000003 0.19000001 0.78500003 3092022
0.067000002 0.19000001 0.78600001 5192001
0.07 0.19000001 0.78700006 7421240
0.074000001 0.19000001 0.78700006 9261897
0.077000007 0.19000001 0.78700006 9655625
0.080000006 0.19100001 0.78800005 9327174
0.084000006 0.19100001 0.78900003 8537918
0.087000005 0.19100001 0.79000002 8538176
0.090000004 0.192 0.79100001 8603968
0.094000004 0.192 0.79200006 9196106
0.097000003 0.192 0.79300004 9196362
0.1 0.193 0.79500002 8736069
0.104 0.193 0.79700005 8538691
0.108 0.19400001 0.79900002 8801605
0.11100001 0.19400001 0.80100006 8999499
0.115 0.19500001 0.80300003 9197132
0.11800001 0.19600001 0.80600005 8868426
0.12200001 0.19600001 0.80800003 9000784
0.126 0.19700001 0.81200004 8869969
0.13000001 0.19800001 0.81600004 6571336
0.134 0.2 0.82200003 7294033
0.13900001 0.20100001 0.82700002 8936276
0.14300001 0.20200001 0.83000004 8148047
0.14600001 0.20200001 0.83100003 8016977
0.15000001 0.20300001 0.83300006 2758932
-0.048 0.208 0.84800005 6380638
-0.044000003 0.20700002 0.84400004 8673623
-0.041000001 0.20600002 0.84000003 8737359
-0.037 0.20500001 0.83600003 8803152
-0.033 0.20400001 0.83100003 8276551
-0.030000001 0.20300001 0.82600003 8802382
-0.026000001 0.20100001 0.82100004 8671049
-0.023000002 0.20100001 0.81800002 8671049
-0.020000001 0.2 0.81500006 6832701
-0.016000001 0.19900002 0.81200004 4729389
-0.013 0.19800001 0.80800003 6176577
-0.010000001 0.19700001 0.80400002 8606798
-0.0060000001 0.19700001 0.80200005 9197139
-0.003 0.19600001 0.80000001 9196881
0 0.19600001 0.79800004 8934734
0.003 0.19600001 0.79700005 8342600
0.0070000002 0.19500001 0.79500002 8934219
0.010000001 0.19500001 0.79400003 8737353
0.013 0.19500001 0.79300004 7488831
0.016000001 0.19400001 0.79200006 8345428
0.019000001 0.19400001 0.79100001 8409420
0.023000002 0.19400001 0.79000002 8607574
0.026000001 0.193 0.78800005 6902613
0.029000001 0.193 0.78700006 4077375
0.032000002 0.193 0.78700006 3222321
0.035 0.193 0.78500003 3484467
0.038000003 0.193 0.78500003 4206380
0.042000003 0.193 0.78400004 8802634
0.045000002 0.193 0.78400004 9262155
0.048 0.192 0.78300005 8801347
0.051000003 0.192 0.78300005 9656656
0.054000001 0.192 0.78300005 9459277
0.057000004 0.192 0.78300005 7619645
0.061000004 0.192 0.78300005 5977665
0.064000003 0.193 0.78300005 3025977
0.067000002 0.193 0.78400004 6307135
0.07 0.193 0.78400004 7422526
0.073000006 0.193 0.78400004 8931904
0.077000007 0.193 0.78400004 9195846
0.080000006 0.193 0.78500003 9261120
0.083000004 0.19400001 0.78600001 9261640
0.087000005 0.19400001 0.78700006 8735039
0.090000004 0.19400001 0.78800005 8800833
0.093000002 0.19400001 0.78900003 8341054
0.097000003 0.19500001 0.78900003 9590605
0.1 0.19500001 0.79100001 9196105
0.104 0.19600001 0.79300004 8735811
0.10700001 0.19600001 0.79500002 8341569
0.11100001 0.19700001 0.79800004 8999499
0.11400001 0.19800001 0.80000001 9131339
0.11800001 0.19800001 0.80200005 8802374
0.12200001 0.19900002 0.80400002 8934473
0.126 0.2 0.80800003 9066060
0.13000001 0.20100001 0.81200004 7425099
0.134 0.20200001 0.81800002 6374473
0.13800001 0.20400001 0.82300001 8278093
0.142 0.20500001 0.82700002 8935250
0.14600001 0.20500001 0.82900006 8344654
0.15000001 0.20600002 0.83100003 8608857
-0.048 0.21100001 0.84400004 8085088
-0.044000003 0.21000001 0.84000003 8803926
-0.040000003 0.20900001 0.83600003 8934738
-0.037 0.208 0.83200002 8408394
-0.033 0.20600002 0.82700002 8342601
-0.030000001 0.20500001 0.82200003 8474187
-0.026000001 0.20400001 0.81800002 8868945
-0.023000002 0.20300001 0.81500006 7686981
-0.019000001 0.20300001 0.81200004 5978937
-0.016000001 0.20200001 0.80800003 5058870
-0.013 0.20100001 0.80400002 7424072
-0.0090000005 0.2 0.80100006 9065807
-0.0060000001 0.19900002 0.79800004 9000016
-0.003 0.19900002 0.79700005 8868171
0 0.19800001 0.79500002 8539464
0.003 0.19800001 0.79400003 8868429
0.0070000002 0.19800001 0.79200006 8737614
0.010000001 0.19800001 0.79200006 8277575
0.013 0.19700001 0.79000002 8212298
0.016000001 0.19700001 0.78900003 6438204
0.019000001 0.19700001 0.78900003 4401970
0.023000002 0.19700001 0.78800005 3417907
0.026000001 0.19600001 0.78600001 3287349
0.029000001 0.19600001 0.78500003 3417134
0.032000002 0.19600001 0.78400004 3287344
0.035 0.19600001 0.78300005 3615543
0.038000003 0.19500001 0.78200006 5455424
0.041000001 0.19500001 0.78100002 9000268
0.045000002 0.19500001 0.78100002 9393228
0.048 0.19500001 0.78100002 9196104
0.051000003 0.19500001 0.78100002 9327948
0.054000001 0.19500001 0.78000003 8670019
0.057000004 0.19500001 0.78100002 7291970
0.060000002 0.19500001 0.78100002 4665147
0.064000003 0.19500001 0.78100002 3552321
0.067000002 0.19500001 0.78100002 7619913
0.07 0.19500001 0.78100002 7355703
0.073000006 0.19500001 0.78100002 9064002
0.077000007 0.19600001 0.78200006 9393223
0.080000006 0.19600001 0.78300005 9392707
0.083000004 0.19600001 0.78300005 8932418
0.086000003 0.19600001 0.78400004 8603710
0.090000004 0.19700001 0.78500003 8735039
0.093000002 0.19700001 0.78600001 8208695
0.096000001 0.19700001 0.78600001 9064004
0.1 0.19800001 0.78800005 8472380
0.10300001 0.19800001 0.79000002 8735039
0.10700001 0.19900002 0.79200006 8735298
0.11000001 0.19900002 0.79400003 8998469
0.11400001 0.2 0.79700005 8735552
0.11800001 0.20100001 0.79900002 9262155
0.12100001 0.20100001 0.80100006 9525327
0.125 0.20200001 0.80400002 9394514
0.12900001 0.20300001 0.80800003 8672080
0.133 0.20500001 0.81300002 5323327
0.13800001 0.20600002 0.81900007 7686986
0.142 0.20700002 0.82300001 9132886
0.14600001 0.208 0.82600003 8277577
0.149 0.20900001 0.82800007 8345166
0.15300001 0.20900001 0.83000004 5717055
-0.051000003 0.215 0.84500003 5853014
-0.047000002 0.21300001 0.84000003 8607826
-0.044000003 0.21300001 0.83700001 9131600
-0.040000003 0.21200001 0.83300006 8803665
-0.037 0.21000001 0.82700002 8606286
-0.033 0.20900001 0.82200003 8408907
-0.030000001 0.208 0.81800002 8737872
-0.026000001 0.20700002 0.81500006 8737872
-0.023000002 0.20600002 0.81200004 6700863
-0.019000001 0.20500001 0.80800003 4927026
-0.016000001 0.20400001 0.80400002 6702405
-0.013 0.20300001 0.80000001 8737872
-0.0090000005 0.20300001 0.79800004 9131602
-0.0060000001 0.20200001 0.79600006 9131600
-0.003 0.20200001 0.79400003 8802637
0 0.20100001 0.79200006 8736842
0.003 0.20100001 0.79100001 8606541
0.0070000002 0.2 0.78900003 8539206
0.010000001 0.2 0.78800005 4597800
0.013 0.19900002 0.78600001 3089198
0.016000001 0.19900002 0.78500003 3155760
0.019000001 0.19900002 0.78400004 3220785
0.023000002 0.19900002 0.78400004 3550003
0.026000001 0.19900002 0.78300005 4010806
0.029000001 0.19900002 0.78200006 5520962
0.032000002 0.19800001 0.78100002 7491401
0.035 0.19800001 0.78000003 8475471
0.038000003 0.19800001 0.77900004 8868426
0.041000001 0.19800001 0.77900004 9065545
0.044000003 0.19800001 0.77800006 8933189
0.048 0.19800001 0.77800006 9196872
0.051000003 0.19800001 0.77800006 8868421
0.054000001 0.19800001 0.77800006 8407877
0.057000004 0.19800001 0.77800006 7816516
0.060000002 0.19800001 0.77800006 4009016
0.064000003 0.19800001 0.77900004 3092022
0.067000002 0.19800001 0.77900004 7816002
0.07 0.19800001 0.77900004 8669249
0.073000006 0.19800001 0.77900004 8867137
0.076000005 0.19800001 0.77900004 9326916
0.080000006 0.19900002 0.78000003 9326405
0.083000004 0.19900002 0.78000003 8340282
0.086000003 0.19900002 0.78200006 8143159
0.089000002 0.19900002 0.78200006 8471867
0.093000002 0.2 0.78300005 9261383
0.096000001 0.2 0.78400004 8668990
0.099000007 0.2 0.78500003 8208697
0.10300001 0.20100001 0.78700006 8471869
0.10600001 0.20100001 0.78900003 8340281
0.11000001 0.20200001 0.79100001 8274490
0.11400001 0.20300001 0.79400003 8998983
0.11700001 0.20300001 0.79600006 9064778
0.12100001 0.20400001 0.79800004 8867913
0.125 0.20500001 0.80100006 9131084
0.12900001 0.20600002 0.80500007 9197650
0.133 0.20700002 0.81000006 6044730
0.13700001 0.20900001 0.81500006 7162190
0.141 0.21000001 0.82000005 9329232
0.14500001 0.21100001 0.82300001 8737618
0.149 0.21200001 0.82500005 8213580
0.15300001 0.21200001 0.82700002 8081483
0.15700001 0.21300001 0.82900006 2892066
-0.051000003 0.21700001 0.84100002 7952470
-0.047000002 0.21600001 0.83700001 8868432
-0.044000003 0.215 0.83300006 8408647
-0.040000003 0.21400002 0.82900006 8277062
-0.037 0.21300001 0.82400006 8605772
-0.033 0.21100001 0.81900007 8868944
-0.029000001 0.21000001 0.81500006 8672079
-0.026000001 0.21000001 0.81200004 8145734
-0.023000002 0.20900001 0.80800003 5190198
-0.019000001 0.208 0.80500007 5190968
-0.016000001 0.20700002 0.80100006 7883080
-0.013 0.20600002 0.79700005 8802637
-0.0090000005 0.20500001 0.79500002 8802122
-0.0060000001 0.20500001 0.79300004 8539465
-0.003 0.20400001 0.79200006 8473670
0 0.20400001 0.79000002 8605772
0.003 0.20300001 0.78800005 9000011
0.0070000002 0.20300001 0.78700006 8606029
0.010000001 0.20300001 0.78600001 3875879
0.013 0.20200001 0.78400004 3023918
0.016000001 0.20200001 0.78300005 3023153
0.019000001 0.20200001 0.78200006 3812148
0.022000002 0.20200001 0.78100002 5126717
0.026000001 0.20100001 0.78000003 7294278
0.029000001 0.20100001 0.78000003 8869192
0.032000002 0.20100001 0.77800006 7030075
0.035 0.20100001 0.77700001 7423038
0.038000003 0.20100001 0.77700001 8803915
0.041000001 0.2 0.77600002 8408384
0.044000003 0.2 0.77600002 8934214
0.047000002 0.2 0.77500004 9130822
0.051000003 0.2 0.77500004 8737091
0.054000001 0.2 0.77500004 8145733
0.057000004 0.2 0.77500004 7684928
0.060000002 0.20100001 0.77600002 3354420
0.063000001 0.20100001 0.77600002 3288116
0.067000002 0.20100001 0.77700001 8012866
0.07 0.20100001 0.77600002 8998212
0.073000006 0.20100001 0.77600002 9063746
0.076000005 0.20100001 0.77600002 9590347
0.079000004 0.20100001 0.77700001 9129796
0.083000004 0.20100001 0.77800006 8866881
0.086000003 0.20200001 0.77900004 8472126
0.089000002 0.20200001 0.78000003 8866627
0.093000002 0.20200001 0.78100002 8537663
0.096000001 0.20300001 0.78100002 9392715
0.099000007 0.20300001 0.78300005 8537662
0.10300001 0.20300001 0.78400004 8406076
0.10600001 0.20400001 0.78600001 8472127
0.11000001 0.20500001 0.78900003 9064265
0.11300001 0.20500001 0.79100001 8735298
0.11700001 0.20600002 0.79400003 8669507
0.12100001 0.20700002 0.79600006 8604225
0.12400001 0.208 0.79900002 8669762
0.12800001 0.20900001 0.80200005 8868943
0.132 0.21000001 0.80600005 7162184
0.13600001 0.21100001 0.81100005 5913408
0.141 0.21300001 0.81600004 8014918
0.14500001 0.21400002 0.82000005 8673106
0.149 0.21400002 0.82200003 7950410
0.15300001 0.215 0.82500005 7950412
0.156 0.21600001 0.82700002 6704457
-0.051000003 0.22000001 0.83700001 9065553
-0.047000002 0.21900001 0.83400005 8672338
-0.044000003 0.21800001 0.83000004 8671308
-0.040000003 0.21700001 0.82500005 8474446
-0.036000002 0.215 0.82000005 8474699
-0.033 0.21400002 0.81500006 8737872
-0.029000001 0.21300001 0.81200004 8408907
-0.026000001 0.21200001 0.80900002 7422012
-0.023000002 0.21100001 0.80500007 4730162
-0.019000001 0.21000001 0.80100006 6505286
-0.016000001 0.20900001 0.79800004 8868429
-0.013 0.208 0.79400003 8737358
-0.0090000005 0.208 0.79300004 8474187
-0.0060000001 0.20700002 0.79100001 8145221
-0.003 0.20700002 0.78900003 8145221
0 0.20600002 0.78700006 8605769
0.003 0.20600002 0.78600001 8737868
0.0070000002 0.20600002 0.78500003 8343884
0.010000001 0.20600002 0.78400004 5844781
0.013 0.20500001 0.78300005 7491659
0.016000001 0.20500001 0.78200006 8148045
0.019000001 0.20500001 0.78000003 7097930
0.022000002 0.20500001 0.78000003 5124144
0.026000001 0.20400001 0.77900004 3744550
0.029000001 0.20400001 0.77800006 3876910
0.032000002 0.20400001 0.77600002 4139054
0.035 0.20300001 0.77500004 8147790
0.038000003 0.20300001 0.77400005 9000014
0.041000001 0.20300001 0.77400005 8867137
0.044000003 0.20300001 0.77300006 8540229
0.047000002 0.20300001 0.77300006 8933958
0.051000003 0.20300001 0.77300006 8999751
0.054000001 0.20300001 0.77300006 7422009
0.057000004 0.20300001 0.77400005 7554624
0.060000002 0.20300001 0.77400005 4076092
0.063000001 0.20300001 0.77400005 3812662
0.066 0.20300001 0.77400005 7619388
0.07 0.20400001 0.77400005 9130057
0.073000006 0.20400001 0.77400005 9327177
0.076000005 0.20400001 0.77400005 9261383
0.079000004 0.20400001 0.77500004 9195590
0.082000002 0.20400001 0.77600002 8866881
0.086000003 0.20500001 0.77700001 8735552
0.089000002 0.20500001 0.77800006 8472126
0.092000008 0.20500001 0.77900004 8603456
0.096000001 0.20500001 0.77900004 8734787
0.099000007 0.20600002 0.78000003 8932420
0.10200001 0.20600002 0.78200006 9129801
0.10600001 0.20700002 0.78400004 8669507
0.109 0.20700002 0.78600001 8866886
0.11300001 0.208 0.78800005 8933193
0.11700001 0.20900001 0.79100001 8867400
0.12 0.21000001 0.79300004 8143935
0.12400001 0.21000001 0.79600006 8144449
0.12800001 0.21100001 0.79900002 8868685
0.132 0.21200001 0.80200005 8079941
0.13600001 0.21400002 0.80700004 4994875
0.14 0.215 0.81200004 7750464
0.14400001 0.21600001 0.81700003 8803922
0.148 0.21700001 0.81900007 7883590
0.15200001 0.21800001 0.82200003 7752520
0.156 0.21900001 0.82500005 8213325
0.16000001 0.22000001 0.82700002 2956314
-0.051000003 0.223 0.83400005 8934991
-0.047000002 0.22200002 0.83100003 8802382
-0.043000001 0.22100002 0.82700002 8605516
-0.040000003 0.21900001 0.82100004 8343370
-0.036000002 0.21800001 0.81600004 8605771
-0.033 0.21700001 0.81200004 8803664
-0.029000001 0.21600001 0.80900002 8144964
-0.026000001 0.215 0.80600005 6306109
-0.023000002 0.21400002 0.80200005 5124405
-0.019000001 0.21200001 0.79700005 7489095
-0.016000001 0.21200001 0.79400003 8737614
-0.013 0.21100001 0.79200006 8475727
-0.0090000005 0.21100001 0.79000002 8211527
-0.0060000001 0.21000001 0.78800005 8408906
-0.003 0.21000001 0.78700006 8211527
0 0.20900001 0.78500003 8211527
0.003 0.20900001 0.78400004 8868941
0.0070000002 0.20900001 0.78300005 7028025
0.010000001 0.208 0.78100002 6701637
0.013 0.208 0.78000003 7950150
0.016000001 0.208 0.78000003 9000015
0.019000001 0.20700002 0.77800006 8343111
0.022000002 0.20700002 0.77800006 8803665
0.026000001 0.20700002 0.77800006 9067094
0.029000001 0.20700002 0.77600002 7362123
0.032000002 0.20600002 0.77400005 4139823
0.035 0.20600002 0.77300006 8475212
0.038000003 0.20600002 0.77200001 8475976
0.041000001 0.20600002 0.77200001 8538177
0.044000003 0.20600002 0.77100003 8737091
0.047000002 0.20600002 0.77100003 8605505
0.050000001 0.20600002 0.77100003 8670786
0.054000001 0.20600002 0.77100003 7290939
0.057000004 0.20600002 0.77200001 6898509
0.060000002 0.20600002 0.77200001 4208196
0.063000001 0.20600002 0.77200001 5847353
0.066 0.20600002 0.77200001 7554881
0.069000006 0.20600002 0.77200001 9392969
0.072000004 0.20600002 0.77100003 9393227
0.076000005 0.20600002 0.77200001 9524555
0.079000004 0.20700002 0.77300006 8537919
0.082000002 0.20700002 0.77300006 9327433
0.086000003 0.20700002 0.77500004 8932419
0.089000002 0.208 0.77600002 9392971
0.092000008 0.208 0.77700001 8735041
0.095000006 0.208 0.77700001 8932421
0.099000007 0.208 0.77800006 9195592
0.10200001 0.20900001 0.78000003 8669251
0.10600001 0.20900001 0.78100002 9130058
0.109 0.21000001 0.78300005 8998473
0.11300001 0.21100001 0.78600001 8603973
0.116 0.21200001 0.78800005 8867145
0.12 0.21200001 0.79100001 8472387
0.12400001 0.21300001 0.79400003 8670533
0.127 0.21400002 0.79600006 8867404
0.13100001 0.215 0.79900002 9000016
0.13500001 0.21600001 0.80300003 5388345
0.13900001 0.21700001 0.80800003 6504771
0.14400001 0.21900001 0.81300002 9132116
0.148 0.22000001 0.81600004 8606798
0.15200001 0.22100002 0.81900007 8212811
0.156 0.22200002 0.82200003 9001300
0.16000001 0.223 0.82500005 6572100
-0.054000001 0.22600001 0.83300006 8543067
-0.050000001 0.22500001 0.83000004 8736845
-0.047000002 0.22400001 0.82800007 8540488
-0.043000001 0.223 0.82300001 8343114
-0.040000003 0.22200002 0.81800002 8671049
-0.036000002 0.22000001 0.81300002 8474189
-0.033 0.21900001 0.81000006 8803665
-0.029000001 0.21900001 0.80700004 7357761
-0.026000001 0.21700001 0.80300003 5321269
-0.022000002 0.21600001 0.79800004 5650747
-0.019000001 0.215 0.79400003 8343117
-0.016000001 0.21400002 0.79200006 8671819
-0.013 0.21400002 0.79000002 8802633
-0.0090000005 0.21300001 0.78800005 8408647
-0.0060000001 0.21300001 0.78600001 8342854
-0.003 0.21200001 0.78400004 8277061
0 0.21200001 0.78300005 8408647
0.003 0.21200001 0.78200006 8408903
0.0070000002 0.21100001 0.78100002 4336423
0.010000001 0.21100001 0.77900004 3220008
0.013 0.21100001 0.77800006 3352363
0.016000001 0.21000001 0.77700001 3352363
0.019000001 0.21000001 0.77600002 3352362
0.022000002 0.21000001 0.77500004 4534059
0.025 0.21000001 0.77500004 6175806
0.029000001 0.20900001 0.77300006 4008494
0.032000002 0.20900001 0.77200001 7096905
0.035 0.20900001 0.77100003 8868937
0.038000003 0.20900001 0.77000004 8079934
0.041000001 0.20900001 0.77000004 8474438
0.044000003 0.208 0.76900005 8672329
0.047000002 0.208 0.76900005 8539712
0.050000001 0.20900001 0.76900005 8342850
0.053000003 0.20900001 0.76900005 7225660
0.057000004 0.20900001 0.76900005 5980229
0.060000002 0.20900001 0.76900005 3814208
0.063000001 0.20900001 0.77000004 6897472
0.066 0.20900001 0.77000004 7947839
0.069000006 0.20900001 0.77000004 9260869
0.072000004 0.20900001 0.76900005 9721164
0.076000005 0.20900001 0.77000004 9392971
0.079000004 0.20900001 0.77000004 8998213
0.082000002 0.21000001 0.77100003 8406077
0.085000001 0.21000001 0.77200001 9129799
0.089000002 0.21000001 0.77300006 8669248
0.092000008 0.21100001 0.77500004 8866373
0.095000006 0.21100001 0.77500004 8997959
0.099000007 0.21200001 0.77700001 8734787
0.10200001 0.21200001 0.77800006 8998216
0.10600001 0.21200001 0.78000003 8932681
0.109 0.21300001 0.78100002 8998474
0.11300001 0.21400002 0.78400004 8801095
0.116 0.21400002 0.78600001 9261646
0.12 0.215 0.78800005 8998731
0.123 0.21600001 0.79100001 8867398
0.127 0.21700001 0.79300004 9064266
0.13100001 0.21700001 0.79600006 8672592
0.13500001 0.21900001 0.80000001 6306620
0.13900001 0.22000001 0.80500007 5717051
0.14300001 0.22200002 0.81000006 8409419
0.147 0.223 0.81400001 8672336
0.15100001 0.223 0.81600004 8343371
0.155 0.22500001 0.82000005 8278856
0.15900001 0.22600001 0.82300001 7886934
-0.054000001 0.22900002 0.83100003 8541262
-0.050000001 0.22800002 0.82800007 8409676
-0.047000002 0.22700001 0.82500005 8277834
-0.043000001 0.22500001 0.81900007 8211785
-0.040000003 0.22400001 0.81500006 8145992
-0.036000002 0.223 0.81100005 8868945
-0.033 0.22200002 0.80700004 8277833
-0.029000001 0.22100002 0.80400002 6570308
-0.026000001 0.22000001 0.80000001 5126719
-0.022000002 0.21900001 0.79500002 6703170
-0.019000001 0.21800001 0.79200006 8802382
-0.016000001 0.21700001 0.79000002 8672079
-0.013 0.21600001 0.78700006 8538950
-0.0090000005 0.21600001 0.78500003 8211268
-0.0060000001 0.215 0.78300005 8145475
-0.003 0.215 0.78200006 8079682
0 0.215 0.78000003 8277061
0.003 0.215 0.78000003 8277318
0.0070000002 0.21400002 0.77900004 4531492
0.010000001 0.21400002 0.77800006 5720650
0.013 0.21400002 0.77700001 4469041
0.016000001 0.21300001 0.77600002 3745834
0.019000001 0.21300001 0.77400005 2957605
0.022000002 0.21300001 0.77400005 3023913
0.025 0.21300001 0.77300006 3549488
0.028000001 0.21200001 0.77100003 3549746
0.032000002 0.21200001 0.76900005 8476238
0.035 0.21200001 0.76900005 8803148
0.038000003 0.21100001 0.76800001 8540232
0.041000001 0.21100001 0.76800001 8737094
0.044000003 0.21100001 0.76800001 8802372
0.047000002 0.21100001 0.76700002 8343361
0.050000001 0.21100001 0.76700002 8539202
0.053000003 0.21100001 0.76700002 7160126
0.057000004 0.21200001 0.76800001 4076347
0.060000002 0.21100001 0.76700002 4010554
0.063000001 0.21200001 0.76800001 6964036
0.066 0.21200001 0.76800001 8406846
0.069000006 0.21200001 0.76700002 8997696
0.072000004 0.21200001 0.76700002 9524041
0.075000003 0.21200001 0.76800001 9129541
0.079000004 0.21200001 0.76800001 8735039
0.082000002 0.21200001 0.76900005 9064005
0.085000001 0.21300001 0.77000004 8866627
0.088000007 0.21300001 0.77100003 8669249
0.092000008 0.21300001 0.77200001 8340542
0.095000006 0.21400002 0.77300006 8471870
0.098000005 0.21400002 0.77400005 8406077
0.10200001 0.215 0.77600002 8537921
0.105 0.215 0.77800006 8208956
0.109 0.21600001 0.78000003 8801093
0.112 0.21700001 0.78200006 8735044
0.116 0.21700001 0.78400004 8801350
0.119 0.21800001 0.78600001 8209469
0.123 0.21800001 0.78800005 8801604
0.127 0.21900001 0.79000002 8868430
0.13000001 0.22000001 0.79200006 8933706
0.134 0.22100002 0.79600006 6636094
0.13900001 0.223 0.80200005 4469046
0.14300001 0.22400001 0.80600005 7817027
0.147 0.22500001 0.81100005 8869709
0.15100001 0.22600001 0.81300002 8343111
0.155 0.22700001 0.81700003 8344651
0.15900001 0.22900002 0.82100004 6110264
0.163 0.23 0.82500005 4733244
-0.054000001 0.23200001 0.82900006 8475727
-0.050000001 0.23100001 0.82600003 8015176
-0.047000002 0.23 0.82200003 7949383
-0.043000001 0.22800002 0.81700003 8409419
-0.039000001 0.22700001 0.81200004 8475212
-0.036000002 0.22600001 0.80800003 8344143
-0.033 0.22500001 0.80500007 7554110
-0.029000001 0.22400001 0.80200005 5781563
-0.026000001 0.223 0.79800004 4469817
-0.022000002 0.22200002 0.79300004 8014663
-0.019000001 0.22100002 0.79000002 9197141
-0.016000001 0.22000001 0.78800005 8146758
-0.013 0.22000001 0.78600001 8211526
-0.0090000005 0.21900001 0.78400004 8343113
-0.0060000001 0.21800001 0.78200006 8277320
-0.003 0.21800001 0.78000003 8409419
0 0.21800001 0.77900004 8540749
0.003 0.21700001 0.77800006 8474957
0.0070000002 0.21700001 0.77700001 8738123
0.010000001 0.21700001 0.77600002 8213321
0.013 0.21600001 0.77500004 8081229
0.016000001 0.21600001 0.77300006 7884359
0.019000001 0.21600001 0.77200001 9395799
0.022000002 0.215 0.77100003 8805719
0.025 0.215 0.77000004 5653826
0.028000001 0.215 0.76900005 5191478
0.032000002 0.215 0.76800001 8541003
0.035 0.21400002 0.76700002 8605769
0.038000003 0.21400002 0.76700002 8078139
0.041000001 0.21400002 0.76600003 8474438
0.044000003 0.21400002 0.76600003 9000012
0.047000002 0.21400002 0.76600003 8211777
0.050000001 0.21400002 0.76600003 8342852
0.053000003 0.21400002 0.76600003 7357505
0.057000004 0.215 0.76700002 3681076
0.060000002 0.21400002 0.76600003 4142400
0.063000001 0.21400002 0.76600003 7029572
0.066 0.21400002 0.76600003 8670534
0.069000006 0.215 0.76600003 8865855
0.072000004 0.215 0.76600003 9260613
0.075000003 0.215 0.76600003 9524556
0.079000004 0.215 0.76700002 8932420
0.082000002 0.215 0.76800001 8997700
0.085000001 0.215 0.76800001 9129029
0.088000007 0.21600001 0.76900005 8866628
0.092000008 0.21600001 0.77000004 8340029
0.095000006 0.21600001 0.77100003 8274236
0.098000005 0.21700001 0.77300006 8735300
0.10200001 0.21700001 0.77400005 8734787
0.105 0.21800001 0.77600002 8340543
0.108 0.21800001 0.77700001 8537923
0.112 0.21900001 0.77900004 8341055
0.116 0.22000001 0.78100002 8209983
0.119 0.22000001 0.78300005 8737096
0.123 0.22100002 0.78600001 8802372
0.126 0.22200002 0.78700006 8998984
0.13000001 0.223 0.79000002 9131083
0.134 0.22400001 0.79300004 6964030
0.13800001 0.22500001 0.79900002 3680556
0.142 0.22700001 0.80300003 7094588
0.147 0.22800002 0.80900002 9066577
0.15100001 0.22900002 0.81100005 8408392
0.155 0.23100001 0.81600004 8476240
0.15900001 0.23200001 0.82000005 6307387
0.164 0.23300001 0.82500005 6771284
-0.057000004 0.23600002 0.83000004 8475468
-0.054000001 0.23500001 0.82700002 8277578
-0.050000001 0.23400001 0.82400006 7949383
-0.046000004 0.23300001 0.81900007 8672336
-0.043000001 0.23100001 0.81300002 8343371
-0.039000001 0.23 0.80900002 8409164
-0.036000002 0.22900002 0.80600005 8278091
-0.032000002 0.22800002 0.80300003 7292223
-0.029000001 0.22700001 0.80000001 5126719
-0.026000001 0.22600001 0.79500002 5323322
-0.022000002 0.22400001 0.79100001 8409419
-0.019000001 0.22400001 0.78800005 8606798
-0.016000001 0.223 0.78600001 8343113
-0.013 0.22200002 0.78400004 8211014
-0.0090000005 0.22200002 0.78200006 8146248
-0.0060000001 0.22100002 0.78000003 8343884
-0.003 0.22100002 0.77800006 8737871
0 0.22000001 0.77700001 8540490
0.003 0.22000001 0.77600002 8079940
0.0070000002 0.22000001 0.77500004 4663594
0.010000001 0.21900001 0.77300006 3614763
0.013 0.21900001 0.77100003 3680043
0.016000001 0.21800001 0.77000004 3418409
0.019000001 0.21800001 0.77000004 4139051
0.022000002 0.21800001 0.76900005 7031875
0.025 0.21800001 0.76800001 8082764
0.028000001 0.21800001 0.76700002 8475212
0.031000001 0.21700001 0.76600003 8606797
0.035 0.21700001 0.76500005 7883074
0.038000003 0.21700001 0.76500005 8014403
0.041000001 0.21700001 0.76500005 8474699
0.044000003 0.21700001 0.76400006 8540744
0.047000002 0.21700001 0.76400006 8343365
0.050000001 0.21700001 0.76400006 7685183
0.053000003 0.21700001 0.76500005 6962236
0.056000002 0.21700001 0.76500005 3877942
0.060000002 0.21700001 0.76500005 4078406
0.063000001 0.21700001 0.76500005 6635319
0.066 0.21700001 0.76400006 8604995
0.069000006 0.21700001 0.76400006 8866626
0.072000004 0.21700001 0.76400006 9260614
0.075000003 0.21800001 0.76500005 9063751
0.078000002 0.21800001 0.76500005 8931908
0.082000002 0.21800001 0.76600003 8603199
0.085000001 0.21800001 0.76600003 8603455
0.088000007 0.21800001 0.76700002 8537921
0.091000006 0.21900001 0.76800001 8143419
0.095000006 0.21900001 0.76900005 7552308
0.098000005 0.22000001 0.77100003 8013373
0.101 0.22000001 0.77200001 8538948
0.105 0.22100002 0.77400005 8473155
0.108 0.22100002 0.77500004 8473156
0.112 0.22200002 0.77800006 7617848
0.115 0.223 0.77900004 8473157
0.119 0.223 0.78100002 8604743
0.123 0.22400001 0.78400004 8736841
