# .PCD v0.7 - Point Cloud Data file format
VERSION 0.7
FIELDS x y z rgb
SIZE 4 4 4 4
TYPE F F F U
COUNT 1 1 1 1
WIDTH 1152
HEIGHT 1
VIEWPOINT 0 0 0 1 0 0 0
POINTS 1152
DATA ascii
0.016000001 0.023000002 0.76900005 12685423
0.019000001 0.023000002 0.76800001 12619887
0.022000002 0.023000002 0.76800001 12620143
0.025 0.023000002 0.76700002 12554607
0.028000001 0.023000002 0.76700002 12488815
0.031000001 0.023000002 0.76600003 12554608
0.034000002 0.023000002 0.76600003 12620145
0.037 0.023000002 0.76500005 12554608
0.040000003 0.023000002 0.76400006 12488815
0.043000001 0.023000002 0.76300001 12357229
0.046000004 0.023000002 0.76300001 12554608
0.049000002 0.023000002 0.76200002 12488815
0.052000001 0.023000002 0.76200002 12423022
0.055000003 0.023000002 0.76200002 12423022
0.058000002 0.023000002 0.76100004 12423022
0.061000004 0.023000002 0.76000005 12357228
0.064000003 0.023000002 0.76000005 12291435
0.067000002 0.023000002 0.75900006 12357229
0.07 0.023000002 0.75800002 12488815
0.073000006 0.023000002 0.75700003 12291436
0.076000005 0.023000002 0.75700003 12357229
0.079000004 0.023000002 0.75600004 12423022
0.082000002 0.023000002 0.75600004 12291436
0.085000001 0.023000002 0.75500005 12291436
0.087000005 0.023000002 0.75400001 12159850
0.090000004 0.023000002 0.75300002 12159850
0.093000002 0.023000002 0.75200003 12225643
0.096000001 0.023000002 0.75200003 12028010
0.099000007 0.023000002 0.75200003 11962217
0.10200001 0.023000002 0.75100005 11962215
0.105 0.023000002 0.75000006 11962471
0.108 0.023000002 0.75000006 12159080
0.11100001 0.023000002 0.74900001 12159082
0.11400001 0.023000002 0.74800003 12027753
0.11700001 0.023000002 0.74700004 12027496
0.12 0.023000002 0.74700004 11961960
0.123 0.023000002 0.74600005 12093546
0.126 0.023000002 0.74600005 11109228
0.12900001 0.023000002 0.74600005 12231320
0.132 0.023000002 0.74500006 12758953
0.13500001 0.023000002 0.74400002 12826553
0.13700001 0.023000002 0.74300003 12958392
0.14 0.023000002 0.74200004 14340046
0.14300001 0.023000002 0.74200004 14603475
0.14600001 0.023000002 0.74200004 14471890
0.149 0.023000002 0.74100006 14208719
0.15200001 0.023000002 0.74100006 14537683
0.155 0.023000002 0.74000001 14537683
0.15800001 0.023000002 0.74000001 14077132
0.16100001 0.023000002 0.73900002 14603476
0.164 0.023000002 0.73900002 14471889
0.16700001 0.023000002 0.73900002 14537682
0.17 0.023000002 0.73800004 13287615
0.17300001 0.023000002 0.73800004 14603475
0.17600001 0.023000002 0.73700005 12892857
0.17900001 0.023000002 0.73700005 14142924
0.18200001 0.023000002 0.73700005 13945545
0.185 0.023000002 0.73700005 14603217
0.18800001 0.023000002 0.73600006 14536652
0.19100001 0.023000002 0.73600006 12825777
0.19500001 0.023000002 0.73600006 12034200
0.19700001 0.023000002 0.73500001 11637125
0.2 0.023000002 0.73400003 11174250
0.20300001 0.023000002 0.73400003 11240038
0.20600002 0.023000002 0.73300004 11305318
0.20900001 0.023000002 0.73300004 11436394
0.21300001 0.023000002 0.73300004 11239268
0.215 0.023000002 0.73200005 11239268
0.21900001 0.023000002 0.73200005 11305059
0.22200002 0.023000002 0.73200005 11436645
0.22500001 0.023000002 0.73100001 11239268
0.22800002 0.023000002 0.73100001 11370854
0.23100001 0.023000002 0.73000002 11370854
0.23400001 0.023000002 0.72900003 11436647
0.23700002 0.023000002 0.72900003 11305061
0.24000001 0.023000002 0.72800004 11305061
0.24300002 0.023000002 0.72800004 11370854
0.24600001 0.023000002 0.72700006 11173475
0.24900001 0.023000002 0.72700006 11173475
0.252 0.023000002 0.72700006 11239267
0.25500003 0.023000002 0.72700006 11173473
0.25800002 0.023000002 0.72600001 11108451
0.26200002 0.023000002 0.72600001 10910553
0.26500002 0.023000002 0.72500002 10845278
0.26800001 0.023000002 0.72500002 10516828
0.27100003 0.023000002 0.72400004 6441282
-0.132 0.028000001 0.80700004 7029043
-0.13000001 0.028000001 0.81500006 6962727
-0.12800001 0.028000001 0.82100004 6895141
-0.125 0.029000001 0.82700002 6566690
-0.12200001 0.029000001 0.82900006 6500899
-0.11700001 0.028000001 0.81600004 10975588
-0.112 0.028000001 0.80600005 13080959
-0.108 0.028000001 0.79800004 12884341
-0.104 0.027000001 0.79400003 12949365
-0.101 0.027000001 0.79100001 12751728
-0.098000005 0.027000001 0.79100001 12553834
-0.094000004 0.027000001 0.79100001 12553573
-0.091000006 0.027000001 0.79000002 12554089
-0.088000007 0.027000001 0.79000002 12554089
-0.085000001 0.027000001 0.78900003 12685416
-0.081 0.027000001 0.78900003 12553830
-0.078000002 0.027000001 0.78800005 12750952
-0.075000003 0.027000001 0.78800005 12750440
-0.072000004 0.027000001 0.78700006 12750696
-0.069000006 0.027000001 0.78600001 12750695
-0.065000005 0.027000001 0.78600001 12750695
-0.062000003 0.027000001 0.78500003 12684902
-0.059000004 0.027000001 0.78500003 12750695
-0.056000002 0.027000001 0.78400004 12816231
-0.053000003 0.027000001 0.78300005 12947817
-0.049000002 0.027000001 0.78200006 12816232
-0.046000004 0.027000001 0.78200006 12750952
-0.043000001 0.027000001 0.78100002 12817003
-0.040000003 0.027000001 0.78000003 13080177
-0.037 0.027000001 0.77900004 12751468
-0.034000002 0.027000001 0.77900004 12554089
-0.031000001 0.027000001 0.77800006 12883056
-0.028000001 0.027000001 0.77800006 12554605
-0.024 0.027000001 0.77700001 12555120
-0.021000002 0.027000001 0.77700001 12620400
-0.018000001 0.027000001 0.77600002 12686193
-0.015000001 0.027000001 0.77600002 12423534
-0.012 0.027000001 0.77500004 12489327
-0.0090000005 0.027000001 0.77400005 12620657
-0.0060000001 0.026000001 0.77300006 12423021
-0.003 0.026000001 0.77200001 12686193
0 0.026000001 0.77200001 12554607
0.003 0.026000001 0.77100003 12554607
0.0060000001 0.026000001 0.77000004 12619630
0.0090000005 0.026000001 0.77000004 12488044
0.012 0.026000001 0.77000004 12553837
0.016000001 0.026000001 0.76900005 12553837
0.019000001 0.026000001 0.76900005 12554092
0.022000002 0.026000001 0.76800001 12619885
0.025 0.026000001 0.76800001 12751216
0.028000001 0.026000001 0.76700002 12751216
0.031000001 0.026000001 0.76600003 12619630
0.034000002 0.026000001 0.76600003 12685423
0.037 0.026000001 0.76500005 12488300
0.040000003 0.026000001 0.76400006 12488814
0.043000001 0.026000001 0.76300001 12291436
0.046000004 0.026000001 0.76300001 12488815
0.049000002 0.026000001 0.76300001 12488815
0.052000001 0.026000001 0.76200002 12554608
0.055000003 0.026000001 0.76200002 12488815
0.058000002 0.026000001 0.76200002 12554608
0.061000004 0.026000001 0.76100004 12423022
0.064000003 0.026000001 0.76000005 12357229
0.067000002 0.026000001 0.75900006 12357229
0.07 0.026000001 0.75900006 12423022
0.073000006 0.026000001 0.75800002 12291948
0.076000005 0.026000001 0.75800002 12291948
0.079000004 0.026000001 0.75700003 12225899
0.082000002 0.026000001 0.75600004 12225898
0.085000001 0.026000001 0.75500005 12159849
0.087000005 0.026000001 0.75400001 12225899
0.090000004 0.026000001 0.75300002 12028264
0.093000002 0.026000001 0.75300002 12225129
0.096000001 0.026000001 0.75200003 12224873
0.099000007 0.026000001 0.75200003 12159079
0.10200001 0.026000001 0.75100005 12027494
0.105 0.026000001 0.75100005 12027494
0.108 0.026000001 0.75000006 12093287
0.11100001 0.026000001 0.75000006 12290409
0.11400001 0.026000001 0.74900001 12093287
0.11700001 0.026000001 0.74800003 12093287
0.12 0.026000001 0.74700004 11830629
0.123 0.026000001 0.74700004 11831402
0.126 0.026000001 0.74700004 12491399
0.12900001 0.026000001 0.74600005 13020066
0.132 0.026000001 0.74500006 12627625
0.13500001 0.026000001 0.74400002 13153719
0.13800001 0.026000001 0.74400002 14011080
0.141 0.026000001 0.74300003 14669268
0.14400001 0.026000001 0.74300003 14538197
0.14600001 0.026000001 0.74200004 14472661
0.15000001 0.026000001 0.74200004 13813961
0.15200001 0.026000001 0.74100006 14537684
0.155 0.026000001 0.74100006 14669268
0.15800001 0.026000001 0.74000001 13945545
0.16100001 0.026000001 0.74000001 14603477
0.164 0.026000001 0.73900002 14537682
0.16700001 0.026000001 0.73900002 14537684
0.17 0.026000001 0.73900002 13879752
0.17300001 0.026000001 0.73800004 14340303
0.17600001 0.026000001 0.73800004 14142924
0.17900001 0.026000001 0.73700005 13616580
0.18200001 0.026000001 0.73700005 12958650
0.185 0.026000001 0.73700005 11971753
0.18900001 0.026000001 0.73700005 11511458
0.192 0.026000001 0.73700005 12299436
0.19500001 0.026000001 0.73600006 11706783
0.19800001 0.026000001 0.73600006 11508885
0.20100001 0.026000001 0.73500001 11834498
0.20300001 0.026000001 0.73400003 11109744
0.20700002 0.026000001 0.73400003 11305833
0.20900001 0.026000001 0.73300004 11436389
0.21300001 0.026000001 0.73300004 11371880
0.215 0.026000001 0.73200005 11305318
0.21900001 0.026000001 0.73200005 11240036
0.22100002 0.026000001 0.73100001 11370852
0.22500001 0.026000001 0.73100001 11239779
0.22800002 0.026000001 0.73100001 11305831
0.23100001 0.026000001 0.73000002 11305315
0.23400001 0.026000001 0.73000002 11239525
0.23700002 0.026000001 0.72900003 11370852
0.24000001 0.026000001 0.72900003 11305831
0.24300002 0.026000001 0.72800004 11305831
0.24600001 0.026000001 0.72800004 11173989
0.24900001 0.026000001 0.72700006 11305059
0.252 0.026000001 0.72700006 11305059
0.25500003 0.026000001 0.72700006 11173987
0.25800002 0.026000001 0.72600001 11239266
0.26200002 0.026000001 0.72600001 10844760
0.26500002 0.026000001 0.72500002 10844762
0.26700002 0.026000001 0.72400004 10451803
0.27100003 0.026000001 0.72400004 6441282
-0.133 0.031000001 0.81200004 7421741
-0.13100001 0.032000002 0.81900007 6962213
-0.12900001 0.032000002 0.82500005 6830114
-0.126 0.032000002 0.83100003 6632482
-0.123 0.032000002 0.83300006 6698274
-0.11700001 0.031000001 0.81800002 11567465
-0.112 0.031000001 0.80600005 12554613
-0.108 0.031000001 0.79800004 12686446
-0.104 0.031000001 0.79400003 12488555
-0.101 0.030000001 0.79200006 12422248
-0.098000005 0.030000001 0.79100001 12356197
-0.094000004 0.030000001 0.79100001 12488037
-0.091000006 0.030000001 0.79100001 12157789
-0.088000007 0.030000001 0.79000002 12486754
-0.085000001 0.030000001 0.78900003 12091996
-0.081 0.030000001 0.78900003 12091996
-0.078000002 0.030000001 0.78800005 11960410
-0.075000003 0.030000001 0.78800005 12091995
-0.072000004 0.030000001 0.78700006 11960409
-0.069000006 0.030000001 0.78700006 12092251
-0.065000005 0.030000001 0.78600001 12354653
-0.062000003 0.030000001 0.78600001 12026716
-0.059000004 0.030000001 0.78500003 12224095
-0.056000002 0.030000001 0.78400004 12092252
-0.053000003 0.030000001 0.78400004 12223837
-0.050000001 0.030000001 0.78300005 12026458
-0.046000004 0.030000001 0.78200006 12026458
-0.043000001 0.030000001 0.78200006 11960409
-0.040000003 0.030000001 0.78100002 12684646
-0.037 0.030000001 0.78000003 11369043
-0.034000002 0.030000001 0.77900004 12224611
-0.031000001 0.030000001 0.77900004 12619884
-0.028000001 0.030000001 0.77800006 12817263
-0.024 0.030000001 0.77800006 12751471
-0.021000002 0.030000001 0.77700001 12817009
-0.018000001 0.030000001 0.77700001 12817009
-0.015000001 0.030000001 0.77600002 12685423
-0.012 0.030000001 0.77500004 12619630
-0.0090000005 0.030000001 0.77500004 12882802
-0.0060000001 0.030000001 0.77400005 12882802
-0.003 0.030000001 0.77300006 12817009
0 0.030000001 0.77200001 12685423
0.003 0.030000001 0.77200001 12619630
0.0060000001 0.029000001 0.77100003 12751216
0.0090000005 0.029000001 0.77100003 12488044
0.012 0.029000001 0.77000004 12619630
0.016000001 0.029000001 0.77000004 12619630
0.019000001 0.029000001 0.76900005 12619884
0.022000002 0.029000001 0.76900005 12685677
0.025 0.029000001 0.76800001 12685677
0.028000001 0.029000001 0.76800001 12685423
0.031000001 0.029000001 0.76700002 12619630
0.034000002 0.029000001 0.76600003 12685677
0.037 0.029000001 0.76600003 12554348
0.040000003 0.029000001 0.76500005 12423021
0.043000001 0.029000001 0.76400006 12423022
0.046000004 0.029000001 0.76300001 12423022
0.049000002 0.029000001 0.76300001 12291436
0.052000001 0.029000001 0.76300001 12554608
0.055000003 0.029000001 0.76200002 12423022
0.058000002 0.029000001 0.76200002 12291436
0.061000004 0.029000001 0.76200002 12357229
0.064000003 0.029000001 0.76100004 12357229
0.067000002 0.029000001 0.76000005 12357229
0.07 0.029000001 0.76000005 12423022
0.073000006 0.029000001 0.75900006 12291693
0.076000005 0.029000001 0.75800002 12094314
0.079000004 0.029000001 0.75700003 12159850
0.082000002 0.029000001 0.75700003 12159850
0.085000001 0.029000001 0.75600004 12225386
0.088000007 0.029000001 0.75500005 12225643
0.090000004 0.029000001 0.75400001 12028264
0.093000002 0.029000001 0.75300002 12094057
0.096000001 0.029000001 0.75300002 12159850
0.099000007 0.029000001 0.75200003 12159079
0.10200001 0.029000001 0.75200003 12093286
0.105 0.029000001 0.75100005 12027494
0.108 0.029000001 0.75100005 12093287
0.11100001 0.029000001 0.75000006 12028006
0.11400001 0.029000001 0.74900001 11962470
0.11700001 0.029000001 0.74800003 11830885
0.12 0.029000001 0.74800003 12027751
0.123 0.029000001 0.74700004 12028265
0.126 0.029000001 0.74700004 11700855
0.12900001 0.029000001 0.74700004 12756894
0.132 0.029000001 0.74600005 12693159
0.13500001 0.029000001 0.74500006 13416893
0.13800001 0.029000001 0.74400002 14141895
0.141 0.029000001 0.74400002 14603217
0.14400001 0.029000001 0.74300003 14603475
0.14600001 0.029000001 0.74200004 14537940
0.15000001 0.029000001 0.74200004 13945545
0.15200001 0.029000001 0.74100006 14603475
0.155 0.029000001 0.74100006 14537682
0.15800001 0.029000001 0.74000001 14208717
0.16100001 0.029000001 0.74000001 14537684
0.164 0.029000001 0.74000001 14471891
0.16800001 0.029000001 0.74000001 14603475
0.17 0.029000001 0.73900002 14274510
0.17400001 0.029000001 0.73900002 14142924
0.17600001 0.029000001 0.73800004 13616580
0.17900001 0.029000001 0.73800004 14603475
0.18300001 0.029000001 0.73800004 14471889
0.186 0.029000001 0.73800004 13945801
0.18900001 0.029000001 0.73700005 14274766
0.192 0.029000001 0.73700005 14274255
0.19500001 0.029000001 0.73700005 12891828
0.19800001 0.029000001 0.73600006 12365221
0.20100001 0.029000001 0.73600006 12757923
0.20400001 0.029000001 0.73500001 12493973
0.20700002 0.029000001 0.73500001 12493453
0.21000001 0.029000001 0.73400003 11768700
0.21300001 0.029000001 0.73300004 11636083
0.21600001 0.029000001 0.73300004 11306344
0.21900001 0.029000001 0.73300004 10712662
0.22200002 0.029000001 0.73200005 11106392
0.22500001 0.029000001 0.73100001 10974805
0.22800002 0.029000001 0.73100001 11304539
0.23100001 0.029000001 0.73000002 11239004
0.23400001 0.029000001 0.73000002 11436385
0.23700002 0.029000001 0.73000002 11436898
0.24000001 0.029000001 0.72900003 11436642
0.24300002 0.029000001 0.72900003 11436388
0.24600001 0.029000001 0.72800004 11436386
0.24900001 0.029000001 0.72800004 11370850
0.252 0.029000001 0.72700006 11239265
0.25600001 0.029000001 0.72700006 11436644
0.25800002 0.029000001 0.72600001 11239266
0.26200002 0.029000001 0.72600001 10975833
0.26500002 0.029000001 0.72500002 11107680
0.26800001 0.029000001 0.72500002 11043172
0.27100003 0.029000001 0.72400004 6046782
-0.13500001 0.034000002 0.80300003 7686716
-0.134 0.035 0.81900007 7552810
-0.132 0.035 0.82400006 7289638
-0.12900001 0.035 0.83000004 7092519
-0.127 0.036000002 0.83500004 7092005
-0.123 0.035 0.83500004 7026725
-0.11800001 0.035 0.81900007 11830377
-0.112 0.034000002 0.80500007 12686194
-0.108 0.034000002 0.79700005 12554865
-0.104 0.034000002 0.79400003 12751216
-0.101 0.034000002 0.79200006 12488297
-0.098000005 0.034000002 0.79100001 12356198
-0.094000004 0.034000002 0.79100001 12684647
-0.091000006 0.033 0.79000002 12355168
-0.088000007 0.033 0.79000002 12289375
-0.085000001 0.033 0.78900003 12157276
-0.081 0.033 0.78900003 12157276
-0.078000002 0.033 0.78900003 12025689
-0.075000003 0.033 0.78800005 12091738
-0.072000004 0.033 0.78800005 12091483
-0.069000006 0.033 0.78700006 12157789
-0.066 0.033 0.78700006 12026203
-0.062000003 0.033 0.78600001 12026458
-0.059000004 0.033 0.78600001 11829079
-0.056000002 0.033 0.78500003 12026458
-0.053000003 0.033 0.78500003 11894872
-0.050000001 0.033 0.78400004 11960152
-0.046000004 0.033 0.78300005 11828566
-0.043000001 0.033 0.78200006 12026202
-0.040000003 0.033 0.78100002 12552802
-0.037 0.033 0.78000003 12092251
-0.034000002 0.033 0.78000003 12487269
-0.031000001 0.033 0.77900004 12620911
-0.028000001 0.033 0.77900004 12751984
-0.024 0.033 0.77800006 12816752
-0.021000002 0.033 0.77800006 12751216
-0.018000001 0.033 0.77700001 12817009
-0.015000001 0.033 0.77600002 12554607
-0.012 0.033 0.77600002 12620400
-0.0090000005 0.033 0.77500004 12554350
-0.0060000001 0.033 0.77400005 12619630
-0.003 0.033 0.77300006 12817009
0 0.033 0.77300006 12817263
0.003 0.033 0.77200001 12751470
0.0060000001 0.033 0.77200001 12685676
0.0090000005 0.033 0.77100003 12619882
0.012 0.033 0.77100003 12619884
0.016000001 0.033 0.77100003 12685677
0.019000001 0.032000002 0.77000004 12619630
0.022000002 0.032000002 0.76900005 12553837
0.025 0.032000002 0.76900005 12685423
0.028000001 0.032000002 0.76800001 12619630
0.031000001 0.032000002 0.76700002 12553837
0.034000002 0.032000002 0.76700002 12619630
0.037 0.032000002 0.76600003 12619630
0.040000003 0.032000002 0.76600003 12619630
0.043000001 0.032000002 0.76500005 12488044
0.046000004 0.032000002 0.76400006 12357228
0.049000002 0.032000002 0.76400006 12488814
0.052000001 0.032000002 0.76300001 12620401
0.055000003 0.032000002 0.76200002 12357229
0.058000002 0.032000002 0.76200002 12357229
0.061000004 0.032000002 0.76200002 12291693
0.064000003 0.032000002 0.76100004 12554608
0.067000002 0.032000002 0.76100004 12357229
0.07 0.032000002 0.76000005 12357229
0.073000006 0.032000002 0.75900006 12423022
0.076000005 0.032000002 0.75900006 12291436
0.079000004 0.032000002 0.75800002 12422252
0.082000002 0.032000002 0.75700003 12422252
0.085000001 0.032000002 0.75600004 12356459
0.088000007 0.032000002 0.75500005 12356459
0.090000004 0.032000002 0.75400001 12224873
0.094000004 0.032000002 0.75400001 12224873
0.096000001 0.032000002 0.75300002 12224873
0.099000007 0.032000002 0.75300002 12224873
0.10200001 0.032000002 0.75200003 12159080
0.105 0.032000002 0.75100005 12093287
0.108 0.032000002 0.75100005 12093287
0.11100001 0.032000002 0.75000006 11961954
0.11400001 0.032000002 0.74900001 11765091
0.11700001 0.032000002 0.74900001 11830884
0.12 0.032000002 0.74800003 11699557
0.123 0.032000002 0.74800003 12292466
0.126 0.032000002 0.74800003 12227706
0.12900001 0.032000002 0.74700004 12031878
0.132 0.032000002 0.74700004 12362652
0.13500001 0.032000002 0.74600005 12758444
0.13800001 0.032000002 0.74500006 13022902
0.141 0.032000002 0.74400002 13023415
0.14400001 0.032000002 0.74400002 13418688
0.147 0.032000002 0.74300003 14734805
0.15000001 0.032000002 0.74200004 14011851
0.15300001 0.032000002 0.74200004 14538196
0.156 0.032000002 0.74200004 14800856
0.15900001 0.032000002 0.74100006 14603477
0.162 0.032000002 0.74100006 14669270
0.16500001 0.032000002 0.74100006 14735063
0.16800001 0.032000002 0.74000001 14472146
0.171 0.032000002 0.74000001 14472402
0.17400001 0.032000002 0.74000001 13813959
0.177 0.032000002 0.73900002 13419201
0.18000001 0.032000002 0.73900002 14472402
0.18300001 0.032000002 0.73900002 14537939
0.186 0.032000002 0.73800004 14209743
0.18900001 0.032000002 0.73800004 14538195
0.192 0.032000002 0.73800004 14471889
0.19500001 0.032000002 0.73700005 14340303
0.19800001 0.032000002 0.73700005 13353150
0.20100001 0.032000002 0.73600006 12562861
0.20400001 0.032000002 0.73600006 12561572
0.20700002 0.032000002 0.73500001 12692123
0.21000001 0.032000002 0.73400003 12098956
0.21300001 0.032000002 0.73400003 11834495
0.21600001 0.032000002 0.73300004 11569259
0.21900001 0.032000002 0.73300004 10909783
0.22200002 0.032000002 0.73200005 10712405
0.22500001 0.032000002 0.73100001 10974546
0.22800002 0.032000002 0.73100001 10645581
0.23100001 0.032000002 0.73100001 10974546
0.23400001 0.032000002 0.73000002 11040596
0.23700002 0.032000002 0.73000002 10909011
0.24000001 0.032000002 0.73000002 10974805
0.24300002 0.032000002 0.72900003 11237977
0.24700001 0.032000002 0.72900003 11370334
0.24900001 0.032000002 0.72800004 11567972
0.25300002 0.032000002 0.72800004 11240032
0.25600001 0.032000002 0.72700006 11305827
0.259 0.032000002 0.72700006 11173473
0.26200002 0.032000002 0.72600001 11172954
0.26500002 0.032000002 0.72600001 11043170
0.26800001 0.032000002 0.72500002 10713184
0.27100003 0.032000002 0.72400004 5916483
-0.13700001 0.038000003 0.81400001 7947314
-0.13500001 0.038000003 0.82100004 7488041
-0.132 0.039000001 0.82700002 7552556
-0.13000001 0.039000001 0.83200002 7421224
-0.127 0.039000001 0.83700001 7485995
-0.123 0.039000001 0.83600003 7355430
-0.11700001 0.038000003 0.81600004 11763814
-0.112 0.037 0.80400002 12488047
-0.108 0.037 0.79600006 12620398
-0.104 0.037 0.79300004 12554094
-0.101 0.037 0.79200006 12422250
-0.098000005 0.037 0.79100001 12487784
-0.094000004 0.037 0.79100001 12815978
-0.091000006 0.037 0.79100001 12223837
-0.088000007 0.037 0.79000002 11960665
-0.085000001 0.037 0.79000002 11960152
-0.082000002 0.037 0.79000002 12091738
-0.078000002 0.037 0.78900003 12026202
-0.075000003 0.036000002 0.78800005 11894872
-0.072000004 0.036000002 0.78800005 12026458
-0.069000006 0.036000002 0.78800005 12223324
-0.066 0.036000002 0.78700006 12223324
-0.062000003 0.036000002 0.78700006 12025945
-0.059000004 0.036000002 0.78600001 12025945
-0.056000002 0.036000002 0.78600001 12157531
-0.053000003 0.036000002 0.78500003 12157531
-0.050000001 0.036000002 0.78400004 11959897
-0.046000004 0.036000002 0.78300005 11828567
-0.043000001 0.036000002 0.78200006 11763031
-0.040000003 0.036000002 0.78200006 12421218
-0.037 0.036000002 0.78100002 12092509
-0.034000002 0.036000002 0.78000003 12816491
-0.031000001 0.036000002 0.78000003 12817777
-0.028000001 0.036000002 0.77900004 12620398
-0.025 0.036000002 0.77900004 12751216
-0.021000002 0.036000002 0.77800006 12817009
-0.018000001 0.036000002 0.77800006 12882802
-0.015000001 0.036000002 0.77700001 12620400
-0.012 0.036000002 0.77600002 12686193
-0.0090000005 0.036000002 0.77600002 12620142
-0.0060000001 0.036000002 0.77500004 12554091
-0.003 0.036000002 0.77400005 12685677
0 0.036000002 0.77400005 12619884
0.003 0.036000002 0.77300006 12619884
0.0060000001 0.036000002 0.77200001 12685677
0.0090000005 0.036000002 0.77200001 12619884
0.012 0.036000002 0.77100003 12685677
0.016000001 0.036000002 0.77100003 12685677
0.019000001 0.036000002 0.77000004 12619630
0.022000002 0.036000002 0.77000004 12751216
0.025 0.036000002 0.76900005 12685423
0.028000001 0.036000002 0.76900005 12685423
0.031000001 0.035 0.76800001 12685423
0.034000002 0.035 0.76700002 12619884
0.037 0.035 0.76700002 12553836
0.040000003 0.035 0.76600003 12554607
0.043000001 0.035 0.76500005 12488814
0.046000004 0.035 0.76500005 12423021
0.049000002 0.035 0.76400006 12357228
0.052000001 0.035 0.76400006 12554607
0.055000003 0.035 0.76300001 12357228
0.058000002 0.035 0.76300001 12423022
0.061000004 0.035 0.76200002 12357229
0.064000003 0.035 0.76200002 12423022
0.067000002 0.035 0.76100004 12357229
0.07 0.035 0.76000005 12357229
0.073000006 0.035 0.76000005 12488045
0.076000005 0.035 0.75900006 12422252
0.079000004 0.035 0.75800002 12290666
0.082000002 0.035 0.75800002 12291436
0.085000001 0.035 0.75700003 12290666
0.088000007 0.035 0.75600004 12290666
0.091000006 0.035 0.75500005 12224873
0.094000004 0.035 0.75400001 12224873
0.096000001 0.035 0.75300002 12356459
0.099000007 0.035 0.75300002 12159080
0.10200001 0.035 0.75200003 12027494
0.105 0.035 0.75200003 12159080
0.108 0.035 0.75100005 12224873
0.11100001 0.035 0.75100005 12093286
0.11400001 0.035 0.75000006 12028006
0.11700001 0.035 0.74900001 11765092
0.12 0.035 0.74900001 11831144
0.123 0.035 0.74800003 11898743
0.126 0.035 0.74800003 11965825
0.12900001 0.035 0.74800003 12032910
0.132 0.035 0.74700004 12034200
0.13500001 0.035 0.74600005 11838108
0.13800001 0.035 0.74600005 12628398
0.141 0.035 0.74500006 13352380
0.14400001 0.035 0.74500006 14274510
0.147 0.035 0.74400002 13945804
0.15000001 0.035 0.74300003 14077387
0.15300001 0.035 0.74300003 14208973
0.156 0.035 0.74200004 14011338
0.15900001 0.035 0.74200004 13879239
0.162 0.035 0.74100006 13879752
0.16500001 0.035 0.74100006 14077131
0.16800001 0.035 0.74100006 14274510
0.171 0.035 0.74000001 14537682
0.17400001 0.035 0.74000001 12958907
0.177 0.035 0.74000001 14011338
0.18000001 0.035 0.73900002 14669268
0.18300001 0.035 0.73900002 14471889
0.186 0.035 0.73900002 14209230
0.18900001 0.035 0.73800004 13748423
0.192 0.035 0.73800004 14669268
0.19500001 0.035 0.73800004 14142924
0.19800001 0.035 0.73800004 14142410
0.20100001 0.035 0.73700005 13022899
0.20400001 0.035 0.73600006 12429730
0.20700002 0.035 0.73600006 12165525
0.21000001 0.035 0.73500001 12493457
0.21300001 0.035 0.73400003 12163200
0.21600001 0.035 0.73400003 11436385
0.21900001 0.035 0.73400003 11106132
0.22200002 0.035 0.73300004 10908754
0.22500001 0.035 0.73200005 11106132
0.22800002 0.035 0.73100001 10842960
0.23100001 0.035 0.73100001 10908753
0.23400001 0.035 0.73000002 11040339
0.23700002 0.035 0.73000002 10974546
0.24000001 0.035 0.73000002 10843219
0.24400002 0.035 0.73000002 10777426
0.24700001 0.035 0.72900003 10580818
0.25 0.035 0.72900003 11107162
0.25300002 0.035 0.72800004 11107421
0.25600001 0.035 0.72700006 10976347
0.259 0.035 0.72700006 10253141
0.26200002 0.035 0.72700006 10976866
0.26500002 0.035 0.72600001 12556930
0.26800001 0.035 0.72600001 10058339
0.27100003 0.035 0.72500002 4601139
-0.13700001 0.041000001 0.81700003 7750958
-0.13500001 0.042000003 0.82300001 7488307
-0.132 0.042000003 0.82800007 7487278
-0.13000001 0.042000003 0.83300006 7683369
-0.127 0.042000003 0.83800006 7291695
-0.123 0.042000003 0.83400005 7621958
-0.11700001 0.041000001 0.81200004 11240822
-0.112 0.040000003 0.80000001 12291951
-0.108 0.040000003 0.79500002 12422764
-0.104 0.040000003 0.79300004 12685422
-0.101 0.040000003 0.79200006 12290407
-0.098000005 0.040000003 0.79200006 12618343
-0.095000006 0.040000003 0.79200006 12289377
-0.091000006 0.040000003 0.79100001 12288862
-0.088000007 0.040000003 0.79100001 12157531
-0.085000001 0.040000003 0.79100001 12025945
-0.082000002 0.040000003 0.79000002 12157531
-0.078000002 0.040000003 0.78900003 12157274
-0.075000003 0.040000003 0.78900003 12354397
-0.072000004 0.040000003 0.78800005 12354397
-0.069000006 0.040000003 0.78800005 12288604
-0.066 0.040000003 0.78800005 12157275
-0.062000003 0.040000003 0.78700006 12354137
-0.059000004 0.040000003 0.78700006 12288345
-0.056000002 0.040000003 0.78700006 12157272
-0.053000003 0.039000001 0.78600001 11894359
-0.050000001 0.039000001 0.78500003 12222552
-0.047000002 0.039000001 0.78400004 11696980
-0.043000001 0.039000001 0.78300005 11960152
-0.040000003 0.039000001 0.78200006 11894617
-0.037 0.039000001 0.78200006 12421216
-0.034000002 0.039000001 0.78100002 12158046
-0.031000001 0.039000001 0.78100002 12751984
-0.028000001 0.039000001 0.78000003 12751727
-0.025 0.039000001 0.77900004 12882544
-0.021000002 0.039000001 0.77900004 12751216
-0.018000001 0.039000001 0.77800006 12751216
-0.015000001 0.039000001 0.77700001 12751216
-0.012 0.039000001 0.77700001 12751216
-0.0090000005 0.039000001 0.77700001 12751215
-0.0060000001 0.039000001 0.77600002 12685677
-0.003 0.039000001 0.77500004 12619885
0 0.039000001 0.77500004 12488299
0.003 0.039000001 0.77400005 12817264
0.0060000001 0.039000001 0.77300006 12685423
0.0090000005 0.039000001 0.77300006 12553837
0.013 0.039000001 0.77200001 12619630
0.016000001 0.039000001 0.77100003 12685423
0.019000001 0.039000001 0.77100003 12553837
0.022000002 0.039000001 0.77000004 12553837
0.025 0.039000001 0.77000004 12619630
0.028000001 0.039000001 0.76900005 12685423
0.031000001 0.039000001 0.76900005 12553837
0.034000002 0.039000001 0.76800001 12554091
0.037 0.038000003 0.76700002 12554091
0.040000003 0.038000003 0.76700002 12554092
0.043000001 0.038000003 0.76600003 12554348
0.046000004 0.038000003 0.76500005 12554605
0.049000002 0.038000003 0.76500005 12225642
0.052000001 0.038000003 0.76400006 12423021
0.055000003 0.038000003 0.76400006 12423022
0.058000002 0.038000003 0.76300001 12423022
0.061000004 0.038000003 0.76300001 12357741
0.064000003 0.038000003 0.76200002 12357228
0.067000002 0.038000003 0.76100004 12553837
0.07 0.038000003 0.76100004 12553837
0.073000006 0.038000003 0.76000005 12356715
0.076000005 0.038000003 0.75900006 12290922
0.079000004 0.038000003 0.75800002 12290666
0.082000002 0.038000003 0.75800002 12356459
0.085000001 0.038000003 0.75700003 12422252
0.088000007 0.038000003 0.75600004 12224873
0.091000006 0.038000003 0.75600004 12290666
0.094000004 0.038000003 0.75500005 12290666
0.097000003 0.038000003 0.75400001 12356459
0.1 0.038000003 0.75300002 12159079
0.10300001 0.038000003 0.75300002 11961701
0.105 0.038000003 0.75200003 12093287
0.109 0.038000003 0.75200003 12093287
0.11100001 0.038000003 0.75100005 12092773
0.11400001 0.038000003 0.75100005 11961958
0.11700001 0.038000003 0.75000006 11896423
0.12 0.038000003 0.74900001 11765866
0.123 0.038000003 0.74900001 12623245
0.126 0.038000003 0.74800003 12887704
0.12900001 0.038000003 0.74800003 13152164
0.132 0.038000003 0.74800003 12825002
0.13500001 0.038000003 0.74700004 13023667
0.13800001 0.038000003 0.74600005 14339531
0.141 0.038000003 0.74600005 13747395
0.14400001 0.038000003 0.74500006 14011081
0.147 0.038000003 0.74400002 14340303
0.15000001 0.038000003 0.74400002 14208459
0.15300001 0.038000003 0.74300003 13813445
0.156 0.038000003 0.74300003 11642020
0.15900001 0.038000003 0.74200004 9931659
0.162 0.038000003 0.74200004 12102828
0.16500001 0.038000003 0.74200004 9141630
0.16800001 0.038000003 0.74100006 13484480
0.171 0.038000003 0.74100006 14537424
0.17400001 0.038000003 0.74100006 12891831
0.177 0.038000003 0.74000001 12232875
0.18000001 0.038000003 0.74000001 13879752
0.18300001 0.038000003 0.74000001 13484737
0.186 0.038000003 0.73900002 14077644
0.18900001 0.038000003 0.73900002 14537682
0.192 0.038000003 0.73800004 13813702
0.19500001 0.038000003 0.73800004 13813959
0.19800001 0.038000003 0.73800004 13155512
0.20100001 0.038000003 0.73700005 13154481
0.20400001 0.038000003 0.73600006 12692897
0.20700002 0.038000003 0.73600006 12231056
0.21000001 0.038000003 0.73600006 11637116
0.21300001 0.038000003 0.73500001 10779488
0.21600001 0.038000003 0.73500001 10842961
0.21900001 0.038000003 0.73400003 10908753
0.22200002 0.038000003 0.73300004 11040854
0.22500001 0.038000003 0.73200005 11303770
0.22800002 0.038000003 0.73200005 10974546
0.23100001 0.038000003 0.73100001 11040340
0.23400001 0.038000003 0.73100001 10974546
0.23700002 0.038000003 0.73000002 10974546
0.24000001 0.038000003 0.73000002 10777167
0.24400002 0.038000003 0.73000002 10908755
0.24700001 0.038000003 0.72900003 10908752
0.25 0.038000003 0.72900003 10843730
0.25300002 0.038000003 0.72800004 11041366
0.25600001 0.038000003 0.72800004 10910295
0.259 0.038000003 0.72800004 10581075
0.26200002 0.038000003 0.72700006 14597546
0.26500002 0.038000003 0.72700006 10715501
0.26800001 0.038000003 0.72600001 9005909
0.27200001 0.038000003 0.72600001 5654348
-0.14 0.044000003 0.81200004 7621185
-0.13800001 0.045000002 0.82000005 8015676
-0.13500001 0.045000002 0.82500005 7030843
-0.133 0.045000002 0.83000004 5258299
-0.13000001 0.046000004 0.83400005 5393742
-0.127 0.046000004 0.83900005 6053211
-0.123 0.045000002 0.83000004 6972007
-0.116 0.044000003 0.80400002 10716544
-0.11100001 0.043000001 0.79700005 12488553
-0.108 0.043000001 0.79400003 12291687
-0.104 0.043000001 0.79300004 12357737
-0.101 0.043000001 0.79200006 12619881
-0.098000005 0.043000001 0.79200006 11895130
-0.095000006 0.043000001 0.79200006 12287834
-0.091000006 0.043000001 0.79200006 12288348
-0.088000007 0.043000001 0.79100001 12288347
-0.085000001 0.043000001 0.79100001 12090968
-0.082000002 0.043000001 0.79000002 12288347
-0.078000002 0.043000001 0.79000002 12288603
-0.075000003 0.043000001 0.78900003 12354651
-0.072000004 0.043000001 0.78900003 12354651
-0.069000006 0.043000001 0.78800005 12289115
-0.066 0.043000001 0.78800005 12354651
-0.062000003 0.043000001 0.78700006 12419931
-0.059000004 0.043000001 0.78700006 12157530
-0.056000002 0.043000001 0.78700006 11894359
-0.053000003 0.043000001 0.78600001 12025945
-0.050000001 0.043000001 0.78500003 11960150
-0.047000002 0.042000003 0.78400004 12025943
-0.043000001 0.042000003 0.78300005 12026201
-0.040000003 0.042000003 0.78200006 12026456
-0.037 0.042000003 0.78200006 12289887
-0.034000002 0.042000003 0.78200006 12290147
-0.031000001 0.042000003 0.78100002 12686191
-0.028000001 0.042000003 0.78100002 12686705
-0.025 0.042000003 0.78000003 12685937
-0.021000002 0.042000003 0.77900004 12882800
-0.018000001 0.042000003 0.77900004 12883056
-0.015000001 0.042000003 0.77800006 12817263
-0.012 0.042000003 0.77700001 12620398
-0.0090000005 0.042000003 0.77700001 12685933
-0.0060000001 0.042000003 0.77600002 12751468
-0.003 0.042000003 0.77600002 12817263
0 0.042000003 0.77500004 12619884
0.003 0.042000003 0.77500004 12553837
0.0060000001 0.042000003 0.77400005 12685423
0.0090000005 0.042000003 0.77300006 12685423
0.013 0.042000003 0.77300006 12619630
0.016000001 0.042000003 0.77200001 12685423
0.019000001 0.042000003 0.77200001 12751216
0.022000002 0.042000003 0.77100003 12751216
0.025 0.042000003 0.77000004 12751216
0.028000001 0.042000003 0.77000004 12619630
0.031000001 0.042000003 0.76900005 12619630
0.034000002 0.042000003 0.76800001 12553836
0.037 0.042000003 0.76800001 12685677
0.040000003 0.042000003 0.76700002 12685677
0.043000001 0.042000003 0.76700002 12619884
0.046000004 0.042000003 0.76600003 12554606
0.049000002 0.042000003 0.76600003 12488813
0.052000001 0.041000001 0.76500005 12423020
0.055000003 0.041000001 0.76400006 12488813
0.058000002 0.041000001 0.76400006 12488813
0.061000004 0.041000001 0.76300001 12554350
0.064000003 0.041000001 0.76200002 12422763
0.067000002 0.041000001 0.76200002 12357226
0.07 0.041000001 0.76100004 12356969
0.073000006 0.041000001 0.76000005 12488298
0.076000005 0.041000001 0.75900006 12356712
0.079000004 0.041000001 0.75900006 12224872
0.082000002 0.041000001 0.75800002 12224872
0.085000001 0.041000001 0.75800002 12356712
0.088000007 0.041000001 0.75700003 12224871
0.091000006 0.041000001 0.75600004 12224872
0.094000004 0.041000001 0.75500005 12159080
0.097000003 0.041000001 0.75400001 12290666
0.1 0.041000001 0.75400001 12224872
0.10300001 0.041000001 0.75300002 12224873
0.10600001 0.041000001 0.75300002 12159080
0.109 0.041000001 0.75200003 12159082
0.11100001 0.041000001 0.75100005 12158822
0.11400001 0.041000001 0.75100005 11896424
0.11700001 0.041000001 0.75000006 11895908
0.12 0.041000001 0.74900001 12292985
0.123 0.041000001 0.74900001 12164238
0.126 0.041000001 0.74900001 12362133
0.12900001 0.041000001 0.74800003 12363679
0.132 0.041000001 0.74800003 13088434
0.13500001 0.041000001 0.74700004 13220794
0.13800001 0.041000001 0.74700004 13616579
0.141 0.041000001 0.74600005 14077130
0.14400001 0.041000001 0.74500006 9405315
0.147 0.041000001 0.74500006 12168621
0.15000001 0.041000001 0.74400002 12233899
0.15300001 0.041000001 0.74400002 11444384
0.156 0.041000001 0.74300003 10457233
0.15900001 0.041000001 0.74300003 10259599
0.162 0.041000001 0.74200004 13615553
0.16500001 0.041000001 0.74200004 13155002
0.16800001 0.041000001 0.74100006 13813446
0.171 0.041000001 0.74100006 11708070
0.17400001 0.041000001 0.74100006 12497588
0.177 0.041000001 0.74100006 14140103
0.18000001 0.041000001 0.74000001 8156020
0.18300001 0.041000001 0.74000001 14668757
0.186 0.041000001 0.74000001 12629944
0.18900001 0.041000001 0.73900002 13222335
0.192 0.041000001 0.73900002 14537682
0.19500001 0.041000001 0.73800004 13682372
0.19800001 0.041000001 0.73800004 12892599
0.20100001 0.041000001 0.73800004 12562603
0.20400001 0.041000001 0.73700005 12429211
0.208 0.041000001 0.73700005 11178110
0.21000001 0.041000001 0.73600006 10847599
0.21400002 0.041000001 0.73600006 11044462
0.21700001 0.041000001 0.73600006 12097149
0.22000001 0.041000001 0.73500001 12557698
0.223 0.041000001 0.73400003 12424821
0.22500001 0.041000001 0.73300004 11173725
0.22800002 0.041000001 0.73200005 10712403
0.23100001 0.041000001 0.73200005 11040339
0.23400001 0.041000001 0.73100001 10974546
0.23800001 0.041000001 0.73100001 11566683
0.24000001 0.041000001 0.73000002 10974546
0.24400002 0.041000001 0.73000002 10974548
0.24700001 0.041000001 0.72900003 10974546
0.25 0.041000001 0.72900003 10777680
0.25300002 0.041000001 0.72800004 10909526
0.25600001 0.041000001 0.72800004 10975575
0.259 0.041000001 0.72800004 10514772
0.26200002 0.041000001 0.72700006 14401192
0.26500002 0.041000001 0.72700006 10319964
0.26900002 0.041000001 0.72700006 8479058
0.27200001 0.041000001 0.72600001 7564137
-0.13900001 0.048 0.82400006 8948121
-0.13600001 0.048 0.82700002 6250605
-0.133 0.049000002 0.83300006 5789794
-0.115 0.047000002 0.79900002 6770507
-0.11100001 0.046000004 0.79500002 12292975
-0.108 0.046000004 0.79300004 12422756
-0.104 0.046000004 0.79200006 12357222
-0.101 0.046000004 0.79200006 12488037
-0.098000005 0.046000004 0.79200006 12092251
-0.095000006 0.046000004 0.79200006 11959640
-0.091000006 0.046000004 0.79200006 12223069
-0.088000007 0.046000004 0.79200006 12025690
-0.085000001 0.046000004 0.79100001 11828311
-0.082000002 0.046000004 0.79100001 12157019
-0.078000002 0.046000004 0.79000002 12683105
-0.075000003 0.046000004 0.79000002 12157531
-0.072000004 0.046000004 0.78900003 12091736
-0.069000006 0.046000004 0.78900003 12354141
-0.066 0.046000004 0.78800005 12419933
-0.062000003 0.046000004 0.78800005 12157529
-0.059000004 0.046000004 0.78700006 12025944
-0.056000002 0.046000004 0.78700006 12091738
-0.053000003 0.046000004 0.78700006 12091737
-0.050000001 0.046000004 0.78600001 12157014
-0.047000002 0.046000004 0.78400004 12091478
-0.043000001 0.046000004 0.78400004 12026201
-0.040000003 0.046000004 0.78300005 11829078
-0.037 0.046000004 0.78300005 12684389
-0.034000002 0.045000002 0.78200006 12225640
-0.031000001 0.045000002 0.78200006 13014899
-0.028000001 0.045000002 0.78100002 12686192
-0.025 0.045000002 0.78000003 12685937
-0.021000002 0.045000002 0.78000003 12817009
-0.018000001 0.045000002 0.77900004 12948595
-0.015000001 0.045000002 0.77800006 12882802
-0.012 0.045000002 0.77800006 12685423
-0.0090000005 0.045000002 0.77800006 12685423
-0.0060000001 0.045000002 0.77700001 12751216
-0.003 0.045000002 0.77600002 12685423
0 0.045000002 0.77600002 12948595
0.003 0.045000002 0.77500004 12751215
0.0060000001 0.045000002 0.77400005 12685423
0.0090000005 0.045000002 0.77400005 12751216
0.013 0.045000002 0.77300006 12685680
0.016000001 0.045000002 0.77300006 12751216
0.019000001 0.045000002 0.77200001 12751216
0.022000002 0.045000002 0.77200001 12751216
0.025 0.045000002 0.77100003 12751216
0.028000001 0.045000002 0.77000004 12619630
0.031000001 0.045000002 0.77000004 12685423
0.034000002 0.045000002 0.76900005 12751215
0.037 0.045000002 0.76800001 12751472
0.040000003 0.045000002 0.76800001 12554092
0.043000001 0.045000002 0.76700002 12554091
0.046000004 0.045000002 0.76700002 12685676
0.049000002 0.045000002 0.76600003 12619626
0.052000001 0.045000002 0.76600003 12488299
0.055000003 0.045000002 0.76500005 12553836
0.058000002 0.044000003 0.76400006 12488044
0.061000004 0.044000003 0.76300001 12357226
0.064000003 0.044000003 0.76300001 12619884
0.067000002 0.044000003 0.76200002 12356712
0.07 0.044000003 0.76100004 12487785
0.073000006 0.044000003 0.76100004 12554091
0.076000005 0.044000003 0.76000005 12422505
0.079000004 0.044000003 0.75900006 12290919
0.082000002 0.044000003 0.75900006 12290920
0.085000001 0.044000003 0.75800002 12290665
0.088000007 0.044000003 0.75700003 12224872
0.091000006 0.044000003 0.75700003 12093286
0.094000004 0.044000003 0.75600004 12159079
0.097000003 0.044000003 0.75500005 12356458
0.1 0.044000003 0.75400001 12158823
0.10300001 0.044000003 0.75300002 12159080
0.10600001 0.044000003 0.75300002 12027494
0.109 0.044000003 0.75200003 12093289
0.112 0.044000003 0.75200003 12159080
0.11400001 0.044000003 0.75100005 11962219
0.11700001 0.044000003 0.75000006 11896678
0.12 0.044000003 0.75000006 12227193
0.123 0.044000003 0.74900001 12427927
0.126 0.044000003 0.74900001 11902613
0.12900001 0.044000003 0.74900001 11574680
0.132 0.044000003 0.74800003 12431535
0.13500001 0.044000003 0.74700004 13353408
0.13800001 0.044000003 0.74700004 14800853
0.141 0.044000003 0.74600005 14471633
0.14400001 0.044000003 0.74600005 12234927
0.147 0.044000003 0.74500006 13616582
0.15000001 0.044000003 0.74500006 13417661
0.15300001 0.044000003 0.74400002 12430766
0.156 0.044000003 0.74400002 11312285
0.15900001 0.044000003 0.74300003 13351355
0.162 0.044000003 0.74300003 14207694
0.16500001 0.044000003 0.74200004 11970987
0.16800001 0.044000003 0.74200004 14208204
0.171 0.044000003 0.74200004 14142923
0.17400001 0.044000003 0.74100006 7890797
0.177 0.044000003 0.74100006 9204601
0.18000001 0.044000003 0.74100006 13222083
0.18300001 0.044000003 0.74000001 14735320
0.186 0.044000003 0.74000001 13223104
0.18900001 0.044000003 0.73900002 14340815
0.192 0.044000003 0.73900002 12301232
0.19500001 0.044000003 0.73900002 14077131
0.19800001 0.044000003 0.73800004 12761270
0.20200001 0.044000003 0.73800004 12562603
0.20500001 0.044000003 0.73800004 12956583
0.208 0.044000003 0.73700005 12494231
0.21100001 0.044000003 0.73700005 12165009
0.21400002 0.044000003 0.73700005 13679020
0.21700001 0.044000003 0.73600006 13744296
0.22000001 0.044000003 0.73600006 12294787
0.223 0.044000003 0.73400003 10843990
0.22600001 0.044000003 0.73400003 11040599
0.22900002 0.044000003 0.73300004 10909526
0.23200001 0.044000003 0.73200005 10908755
0.23500001 0.044000003 0.73200005 10974547
0.23800001 0.044000003 0.73100001 11040340
0.24100001 0.044000003 0.73100001 11040341
0.24400002 0.044000003 0.73000002 11040085
0.24700001 0.044000003 0.73000002 10909268
0.25 0.044000003 0.72900003 10646099
0.25300002 0.044000003 0.72900003 10907986
0.25600001 0.044000003 0.72800004 10975575
0.259 0.044000003 0.72800004 15191227
0.26300001 0.044000003 0.72800004 10845276
0.266 0.044000003 0.72800004 10515539
0.26900002 0.044000003 0.72700006 7951426
0.27200001 0.044000003 0.72600001 7170928
-0.115 0.050000001 0.79800004 10388865
-0.11100001 0.050000001 0.79400003 12621170
-0.108 0.050000001 0.79300004 11961951
-0.104 0.050000001 0.79300004 12619881
-0.101 0.049000002 0.79200006 12224608
-0.098000005 0.049000002 0.79300004 12026203
-0.095000006 0.049000002 0.79300004 12222554
-0.092000008 0.049000002 0.79300004 12222555
-0.088000007 0.049000002 0.79300004 11959383
-0.085000001 0.049000002 0.79200006 12156762
-0.082000002 0.049000002 0.79200006 12156762
-0.079000004 0.049000002 0.79100001 12419677
-0.075000003 0.049000002 0.79000002 12552542
-0.072000004 0.049000002 0.79000002 12354138
-0.069000006 0.049000002 0.78900003 12222295
-0.066 0.049000002 0.78800005 12156504
-0.062000003 0.049000002 0.78800005 12090966
-0.059000004 0.049000002 0.78800005 12156759
-0.056000002 0.049000002 0.78700006 12156761
-0.053000003 0.049000002 0.78700006 12156761
-0.050000001 0.049000002 0.78600001 11959380
-0.047000002 0.049000002 0.78500003 12222554
-0.043000001 0.049000002 0.78400004 12025945
-0.040000003 0.049000002 0.78300005 12091483
-0.037 0.049000002 0.78300005 12486754
-0.034000002 0.049000002 0.78200006 12356712
-0.031000001 0.049000002 0.78200006 12751470
-0.028000001 0.049000002 0.78200006 12817263
-0.025 0.049000002 0.78100002 12817263
-0.021000002 0.048 0.78000003 12817263
-0.018000001 0.048 0.78000003 12751470
-0.015000001 0.048 0.77900004 12883056
-0.012 0.048 0.77800006 12685677
-0.0090000005 0.048 0.77800006 12751215
-0.0060000001 0.048 0.77800006 12751216
-0.003 0.048 0.77700001 12685423
0 0.048 0.77600002 12751216
0.003 0.048 0.77500004 12685423
0.0060000001 0.048 0.77500004 12685423
0.0090000005 0.048 0.77400005 12685423
0.013 0.048 0.77400005 12553837
0.016000001 0.048 0.77300006 12685423
0.019000001 0.048 0.77300006 12685423
0.022000002 0.048 0.77200001 12619630
0.025 0.048 0.77100003 12751216
0.028000001 0.048 0.77000004 12685423
0.031000001 0.048 0.77000004 12619630
0.034000002 0.048 0.76900005 12685677
0.037 0.048 0.76900005 12619884
0.040000003 0.048 0.76800001 12422506
0.043000001 0.048 0.76800001 12554091
0.046000004 0.048 0.76700002 12619630
0.049000002 0.048 0.76700002 12553837
0.052000001 0.048 0.76600003 12685423
0.055000003 0.048 0.76600003 12619630
0.058000002 0.048 0.76500005 12554093
0.061000004 0.048 0.76400006 12488814
0.064000003 0.047000002 0.76300001 12423021
0.067000002 0.047000002 0.76200002 12488044
0.07 0.047000002 0.76100004 12356458
0.073000006 0.047000002 0.76100004 12422251
0.076000005 0.047000002 0.76000005 12488044
0.079000004 0.047000002 0.75900006 12488044
0.082000002 0.047000002 0.75900006 12422251
0.085000001 0.047000002 0.75800002 12290665
0.088000007 0.047000002 0.75800002 12224872
0.091000006 0.047000002 0.75700003 12224873
0.094000004 0.047000002 0.75700003 12159080
0.097000003 0.047000002 0.75500005 12356459
0.1 0.047000002 0.75500005 12093286
0.10300001 0.047000002 0.75400001 12224873
0.10600001 0.047000002 0.75300002 11961701
0.109 0.047000002 0.75300002 12093289
0.112 0.047000002 0.75200003 12158824
0.115 0.047000002 0.75200003 12027496
0.11800001 0.047000002 0.75100005 12027496
0.12 0.047000002 0.75000006 12425864
0.12400001 0.047000002 0.75000006 12955047
0.127 0.047000002 0.75000006 13614775
0.12900001 0.047000002 0.74900001 14142663
0.132 0.047000002 0.74800003 14734546
0.13500001 0.047000002 0.74800003 14669011
0.13800001 0.047000002 0.74700004 14603988
0.141 0.047000002 0.74700004 14406096
0.14400001 0.047000002 0.74600005 12629685
0.147 0.047000002 0.74500006 13879495
0.15000001 0.047000002 0.74500006 11509923
0.15300001 0.047000002 0.74500006 12365232
0.156 0.047000002 0.74400002 13878214
0.15900001 0.047000002 0.74400002 11509666
0.162 0.047000002 0.74300003 10654614
0.16500001 0.047000002 0.74300003 13615555
0.16800001 0.047000002 0.74200004 11839656
0.171 0.047000002 0.74200004 14866390
0.17400001 0.047000002 0.74100006 13353151
0.177 0.047000002 0.74100006 10786198
0.18000001 0.047000002 0.74100006 12036010
0.18300001 0.047000002 0.74100006 14800856
0.186 0.047000002 0.74000001 12762554
0.18900001 0.047000002 0.74000001 12761784
0.193 0.047000002 0.74000001 14538194
0.19600001 0.047000002 0.73900002 13419713
0.19900002 0.047000002 0.73900002 13089978
0.20200001 0.047000002 0.73800004 12562862
0.20500001 0.047000002 0.73800004 12957359
0.208 0.047000002 0.73800004 12890792
0.21100001 0.047000002 0.73700005 13546661
0.21400002 0.047000002 0.73700005 12164492
0.21700001 0.047000002 0.73700005 10254176
0.22000001 0.047000002 0.73600006 11041626
0.223 0.047000002 0.73500001 11830627
0.22600001 0.047000002 0.73400003 11698528
0.22900002 0.047000002 0.73300004 11237977
0.23200001 0.047000002 0.73300004 11500892
0.23500001 0.047000002 0.73300004 11369050
0.23800001 0.047000002 0.73200005 11566685
0.24100001 0.047000002 0.73100001 11303513
0.24400002 0.047000002 0.73100001 11566685
0.24700001 0.047000002 0.73000002 11697240
0.25 0.047000002 0.73000002 10778198
0.25300002 0.047000002 0.72900003 10646095
0.25600001 0.047000002 0.72900003 11767927
0.26000002 0.047000002 0.72900003 16638161
0.26300001 0.047000002 0.72800004 10449235
0.266 0.047000002 0.72800004 10384979
0.26900002 0.047000002 0.72700006 6898997
0.27200001 0.047000002 0.72700006 6776687
-0.115 0.053000003 0.80000001 10915973
-0.11100001 0.053000003 0.79600006 12488812
-0.108 0.053000003 0.79400003 12028776
-0.104 0.053000003 0.79400003 12751209
-0.101 0.053000003 0.79300004 12157532
-0.098000005 0.053000003 0.79300004 12353628
-0.095000006 0.053000003 0.79300004 12090969
-0.092000008 0.053000003 0.79300004 12288347
-0.088000007 0.053000003 0.79300004 12353628
-0.085000001 0.053000003 0.79200006 12419420
-0.082000002 0.053000003 0.79200006 12222042
-0.079000004 0.052000001 0.79100001 12353884
