# .PCD v0.7 - Point Cloud Data file format
VERSION 0.7
FIELDS x y z rgb
SIZE 4 4 4 4
TYPE F F F U
COUNT 1 1 1 1
WIDTH 1244
HEIGHT 1
VIEWPOINT 0 0 0 1 0 0 0
POINTS 1244
DATA ascii
0.134 0.11100001 0.87400001 3750989
0.13800001 0.11100001 0.87600005 3882322
0.142 0.112 0.87800002 3685198
0.14600001 0.112 0.88100004 3750991
0.15000001 0.11300001 0.88500005 3685196
0.156 0.11400001 0.89700001 4211542
0.162 0.116 0.91100007 4211287
0.16700001 0.11700001 0.92000002 2763841
0.17200001 0.11800001 0.92500007 3355721
0.17600001 0.11800001 0.92800003 3355721
0.18000001 0.119 0.92900002 3289928
0.18400002 0.119 0.93000007 3224135
0.18900001 0.119 0.93200004 3158342
0.193 0.119 0.93400002 3224134
0.19700001 0.12 0.93500006 4079443
0.20100001 0.12 0.93600005 2961471
-0.12400001 0.123 0.94000006 5131861
-0.12 0.12200001 0.93300003 5065818
-0.115 0.12100001 0.92600006 4736344
-0.11000001 0.12 0.92000002 4473431
-0.10600001 0.119 0.91200006 3947087
-0.10200001 0.119 0.91000003 3749708
-0.098000005 0.119 0.90800005 3749708
-0.094000004 0.119 0.90700006 3815245
-0.090000004 0.11800001 0.90700006 3552330
-0.087000005 0.11800001 0.90700006 2697020
-0.083000004 0.11800001 0.90600002 1841964
-0.079000004 0.11800001 0.90500003 2631479
-0.075000003 0.11800001 0.90200007 5131869
-0.071000002 0.11700001 0.89700001 5395042
-0.067000002 0.116 0.89200002 3750476
-0.064000003 0.116 0.88800007 3750222
-0.060000002 0.116 0.88600004 3421513
-0.056000002 0.115 0.88500005 3289925
-0.053000003 0.115 0.88500005 3224647
-0.049000002 0.115 0.88500005 3158852
-0.046000004 0.115 0.88500005 3093059
-0.042000003 0.115 0.88400006 3092548
-0.038000003 0.115 0.88300002 3092548
-0.035 0.115 0.88200003 2961475
-0.031000001 0.11400001 0.87900007 3093061
-0.028000001 0.11400001 0.87700003 3224134
-0.024 0.11400001 0.87500006 3289927
-0.021000002 0.11400001 0.87400001 3289927
-0.017000001 0.11400001 0.87300003 3487562
-0.014 0.11400001 0.87200004 3618892
-0.010000001 0.11300001 0.87100005 3487819
-0.0070000002 0.11300001 0.87000006 3553612
-0.003 0.11300001 0.86900002 3619150
0 0.11300001 0.86800003 3750736
0.0040000002 0.11300001 0.86700004 3554127
0.0070000002 0.11300001 0.86700004 3685713
0.011000001 0.11300001 0.86600006 3817299
0.014 0.11300001 0.86500007 3817299
0.018000001 0.11300001 0.86500007 3882322
0.021000002 0.11300001 0.86400002 4079701
0.024 0.11300001 0.86400002 4079701
0.028000001 0.11300001 0.86400002 4145494
0.031000001 0.11300001 0.86400002 4079701
0.035 0.11300001 0.86400002 4145494
0.038000003 0.11300001 0.86500007 4145750
0.042000003 0.11300001 0.86400002 4014677
0.045000002 0.11300001 0.86400002 4080470
0.049000002 0.11300001 0.86400002 4211287
0.052000001 0.11300001 0.86500007 4342873
0.056000002 0.11300001 0.86400002 4474459
0.059000004 0.11300001 0.86500007 4342873
0.062000003 0.11300001 0.86400002 4212056
0.066 0.11300001 0.86400002 4409436
0.069000006 0.11300001 0.86400002 4540252
0.073000006 0.11300001 0.86500007 4540254
0.076000005 0.11300001 0.86500007 4671840
0.080000006 0.11300001 0.86600006 4474461
0.083000004 0.11300001 0.86600006 4606303
0.087000005 0.11300001 0.86600006 4277850
0.091000006 0.11300001 0.86700004 4343386
0.094000004 0.11300001 0.86700004 4540253
0.098000005 0.11300001 0.86700004 4277080
0.101 0.11400001 0.86800003 4474459
0.105 0.11400001 0.86800003 4342873
0.108 0.11400001 0.86900002 4277080
0.112 0.11400001 0.86900002 4408666
0.115 0.11400001 0.86900002 4211287
0.119 0.11400001 0.86900002 4211287
0.123 0.11400001 0.87000006 3948885
0.126 0.11400001 0.86900002 3685713
0.13000001 0.11400001 0.87000006 4013907
0.133 0.11400001 0.87000006 3816784
0.13700001 0.11400001 0.87200004 3948115
0.141 0.115 0.87400001 3619150
0.14500001 0.115 0.87700003 3816784
0.149 0.116 0.88100004 3685455
0.155 0.11800001 0.89400005 3948884
0.16100001 0.119 0.90800005 4079956
0.16700001 0.12100001 0.91800004 3026756
0.17200001 0.12200001 0.92300004 2895170
0.17600001 0.12200001 0.92600006 2960963
0.18000001 0.12200001 0.92700005 3158342
0.18400002 0.12200001 0.92800003 3224135
0.18800001 0.123 0.93000007 3355721
0.192 0.123 0.93100005 3355980
0.19700001 0.123 0.93200004 3487819
0.20100001 0.123 0.93400002 3553610
-0.12400001 0.127 0.93700004 5460826
-0.119 0.126 0.93000007 5065817
-0.115 0.125 0.92400002 4802137
-0.11000001 0.12400001 0.91700006 4407638
-0.10600001 0.123 0.91000003 3683915
-0.10200001 0.12200001 0.90700006 3815502
-0.098000005 0.12200001 0.90500003 3881295
-0.094000004 0.12200001 0.90500003 3749709
-0.090000004 0.12200001 0.90400004 3617867
-0.087000005 0.12200001 0.90500003 3223364
-0.083000004 0.12200001 0.90500003 2171187
-0.079000004 0.12200001 0.90400004 1447721
-0.075000003 0.12100001 0.90100002 3486789
-0.072000004 0.12100001 0.89800006 4736856
-0.067000002 0.12 0.89200002 4802648
-0.064000003 0.119 0.88700002 3816271
-0.060000002 0.119 0.88400006 3553097
-0.056000002 0.119 0.88200003 3421511
-0.053000003 0.11800001 0.88100004 3289925
-0.049000002 0.11800001 0.88000005 3224132
-0.045000002 0.11800001 0.88000005 3224132
-0.042000003 0.11800001 0.87900007 3158339
-0.038000003 0.11800001 0.87700003 3224132
-0.035 0.11800001 0.87600005 3289925
-0.031000001 0.11700001 0.87300003 3355718
-0.028000001 0.11700001 0.87100005 3421254
-0.024 0.11700001 0.87000006 3487305
-0.021000002 0.11700001 0.86900002 3619148
-0.017000001 0.11700001 0.86800003 3619150
-0.014 0.11700001 0.86800003 3421771
-0.010000001 0.116 0.86700004 3619150
-0.0070000002 0.116 0.86600006 3619150
-0.003 0.116 0.86500007 3750736
0 0.116 0.86500007 3816529
0.0040000002 0.116 0.86400002 3750736
0.0070000002 0.116 0.86400002 3948115
0.011000001 0.116 0.86300004 3948116
0.014 0.116 0.86200005 4013910
0.017000001 0.116 0.86200005 3948115
0.021000002 0.116 0.86100006 4013908
0.024 0.115 0.86000001 3948115
0.028000001 0.115 0.86000001 4145494
0.031000001 0.116 0.86100006 4014164
0.035 0.116 0.86100006 4014164
0.038000003 0.116 0.86100006 4277080
0.042000003 0.116 0.86200005 4277080
0.045000002 0.116 0.86200005 4013908
0.048 0.116 0.86100006 4211287
0.052000001 0.116 0.86200005 4342873
0.055000003 0.116 0.86200005 4474459
0.059000004 0.116 0.86200005 4671838
0.062000003 0.116 0.86100006 4474716
0.066 0.116 0.86100006 4474973
0.069000006 0.116 0.86100006 4671838
0.073000006 0.116 0.86100006 4606045
0.076000005 0.116 0.86200005 4540252
0.080000006 0.116 0.86300004 4606301
0.083000004 0.116 0.86400002 4606303
0.087000005 0.116 0.86400002 4738145
0.090000004 0.116 0.86400002 4606304
0.094000004 0.116 0.86400002 4474461
0.097000003 0.11700001 0.86500007 4474461
0.101 0.11700001 0.86500007 4408668
0.104 0.11700001 0.86600006 4408668
0.108 0.11700001 0.86600006 4474461
0.112 0.11700001 0.86600006 4474462
0.115 0.11700001 0.86600006 4408668
0.119 0.11700001 0.86600006 4408668
0.12200001 0.11700001 0.86700004 4211543
0.126 0.11700001 0.86600006 4079958
0.12900001 0.11700001 0.86700004 4145495
0.133 0.11700001 0.86700004 3882323
0.13700001 0.11700001 0.86800003 3816529
0.141 0.11800001 0.87100005 3684943
0.14400001 0.11800001 0.87300003 3750735
0.149 0.119 0.87800002 3750736
0.15400001 0.12100001 0.88900006 4014677
0.16100001 0.123 0.90400004 5264742
0.16600001 0.12400001 0.91500002 2895426
0.171 0.125 0.92100006 3092549
0.17600001 0.126 0.92400002 3026756
0.18000001 0.126 0.92500007 3092549
0.18400002 0.126 0.92600006 3224135
0.18800001 0.126 0.92700005 3092549
0.192 0.126 0.92900002 3421514
0.19600001 0.127 0.93000007 3487819
0.2 0.127 0.93100005 3816781
0.20400001 0.127 0.93200004 13619938
-0.123 0.13000001 0.93300003 5460571
-0.119 0.12900001 0.92600006 5197147
-0.11400001 0.12800001 0.92000002 4736346
-0.11000001 0.127 0.91400003 4144466
-0.105 0.126 0.90800005 3749709
-0.101 0.126 0.90500003 3749708
-0.097000003 0.125 0.90300006 3683916
-0.094000004 0.125 0.90200007 3486537
-0.090000004 0.125 0.90200007 3552330
-0.086000003 0.125 0.90200007 3354951
-0.083000004 0.125 0.90300006 2434618
-0.079000004 0.125 0.90300006 1579307
-0.075000003 0.125 0.90100002 1841708
-0.072000004 0.12400001 0.89800006 3749962
-0.068000004 0.12400001 0.89300007 5855852
-0.064000003 0.123 0.88800007 4737371
-0.060000002 0.12200001 0.88300002 4013650
-0.056000002 0.12200001 0.87900007 3816271
-0.052000001 0.12100001 0.87700003 3684685
-0.049000002 0.12100001 0.87600005 3684685
-0.045000002 0.12100001 0.87500006 3487306
-0.042000003 0.12100001 0.87300003 3421513
-0.038000003 0.12100001 0.87200004 3355720
-0.034000002 0.12 0.87000006 3487819
-0.031000001 0.12 0.86800003 3487819
-0.027000001 0.12 0.86700004 3487564
-0.024 0.12 0.86600006 3553612
-0.020000001 0.12 0.86600006 3487819
-0.017000001 0.12 0.86500007 3685198
-0.014 0.119 0.86400002 3750479
-0.010000001 0.119 0.86400002 3816272
-0.0070000002 0.119 0.86300004 3816529
-0.003 0.119 0.86300004 3751506
0 0.119 0.86200005 3883092
0.0040000002 0.119 0.86100006 3948115
0.0070000002 0.119 0.86100006 3882322
0.011000001 0.119 0.86000001 3882835
0.014 0.119 0.85900003 4014677
0.017000001 0.119 0.85800004 4145749
0.021000002 0.119 0.85800004 4145749
0.024 0.119 0.85700005 4079700
0.028000001 0.119 0.85800004 4013908
0.031000001 0.119 0.85800004 4277080
0.035 0.119 0.85900003 4342873
0.038000003 0.119 0.85900003 4211287
0.041000001 0.119 0.85900003 4408666
0.045000002 0.119 0.85900003 4474459
0.048 0.119 0.85900003 4408666
0.052000001 0.119 0.85900003 4540252
0.055000003 0.119 0.85900003 4474459
0.059000004 0.119 0.85900003 4408666
0.062000003 0.119 0.85900003 4540252
0.066 0.119 0.85900003 4606045
0.069000006 0.119 0.85800004 4606045
0.072000004 0.119 0.85900003 4671838
0.076000005 0.119 0.86000001 4671838
0.080000006 0.119 0.86100006 4671838
0.083000004 0.119 0.86100006 4540765
0.087000005 0.12 0.86200005 4606816
0.090000004 0.119 0.86100006 4540767
0.093000002 0.12 0.86100006 4540254
0.097000003 0.12 0.86200005 4474461
0.101 0.12 0.86200005 4540254
0.104 0.12 0.86300004 4540254
0.108 0.12 0.86300004 4408668
0.11100001 0.12 0.86300004 4606047
0.115 0.12 0.86400002 4606047
0.11800001 0.12 0.86300004 4474461
0.12200001 0.12 0.86400002 4277850
0.125 0.12 0.86400002 4146008
0.12900001 0.12 0.86400002 4146008
0.133 0.12100001 0.86500007 3948116
0.13600001 0.12100001 0.86600006 3948117
0.14 0.12100001 0.86700004 3882322
0.14400001 0.12100001 0.87000006 3684943
0.148 0.12200001 0.87400001 3750991
0.15400001 0.123 0.88400006 3948370
0.16000001 0.126 0.90000004 5264230
0.16600001 0.12800001 0.91300005 2764096
0.171 0.12900001 0.91900003 2895682
0.17500001 0.12900001 0.92200005 3289928
0.17900001 0.12900001 0.92300004 3224135
0.18300001 0.12900001 0.92400002 3092549
0.18800001 0.13000001 0.92500007 3092549
0.192 0.13000001 0.92600006 3289927
0.19600001 0.13000001 0.92700005 3422026
0.2 0.13000001 0.92800003 3487819
0.20400001 0.13000001 0.92900002 10790839
-0.123 0.133 0.93000007 5987175
-0.11800001 0.132 0.92300004 4999775
-0.11400001 0.13100001 0.91700006 4736604
-0.109 0.13000001 0.91100007 4210260
-0.105 0.12900001 0.90500003 3881038
-0.101 0.12900001 0.90300006 3618122
-0.097000003 0.12900001 0.90100002 3683916
-0.094000004 0.12900001 0.90000004 3683916
-0.090000004 0.12900001 0.90000004 3552072
-0.086000003 0.12800001 0.90000004 3354951
-0.083000004 0.12800001 0.90000004 2895170
-0.079000004 0.12900001 0.90100002 1776946
-0.075000003 0.12800001 0.90000004 1447722
-0.072000004 0.12800001 0.89800006 3158340
-0.068000004 0.127 0.89400005 5132131
-0.064000003 0.127 0.88800007 5328740
-0.060000002 0.126 0.88200003 4670811
-0.056000002 0.125 0.87700003 4276309
-0.052000001 0.125 0.87400001 3947858
-0.049000002 0.12400001 0.87300003 3750478
-0.045000002 0.12400001 0.87200004 3750478
-0.041000001 0.12400001 0.87000006 3684686
-0.038000003 0.12400001 0.86800003 3816272
-0.034000002 0.123 0.86600006 3553357
-0.031000001 0.123 0.86400002 3487564
-0.027000001 0.123 0.86300004 3684686
-0.024 0.123 0.86300004 3750479
-0.020000001 0.123 0.86200005 3619406
-0.017000001 0.123 0.86100006 3619407
-0.013 0.123 0.86100006 3816785
-0.010000001 0.12200001 0.86000001 3816529
-0.0070000002 0.12200001 0.86000001 3882322
-0.003 0.12200001 0.85900003 3882322
0 0.12200001 0.85900003 3882322
0.0040000002 0.12200001 0.85800004 3882579
0.0070000002 0.12200001 0.85800004 4014164
0.011000001 0.12200001 0.85700005 4014421
0.014 0.12200001 0.85600007 3948628
0.017000001 0.12200001 0.85500002 4145494
0.021000002 0.12200001 0.85500002 4277335
0.024 0.12200001 0.85500002 4277336
0.028000001 0.12200001 0.85500002 4211286
0.031000001 0.12200001 0.85500002 4211287
0.034000002 0.12200001 0.85600007 4342873
0.038000003 0.12200001 0.85600007 4342873
0.041000001 0.12200001 0.85600007 4342873
0.045000002 0.12200001 0.85600007 4342873
0.048 0.12200001 0.85600007 4211287
0.052000001 0.12200001 0.85500002 4342873
0.055000003 0.12200001 0.85600007 4408666
0.059000004 0.12200001 0.85600007 4474459
0.062000003 0.12200001 0.85600007 4540252
0.065000005 0.12200001 0.85700005 4606045
0.069000006 0.12200001 0.85700005 4540252
0.072000004 0.12200001 0.85700005 4671838
0.076000005 0.12200001 0.85700005 4474716
0.079000004 0.12200001 0.85700005 4408925
0.083000004 0.12200001 0.85800004 4606302
0.086000003 0.123 0.85900003 4540512
0.090000004 0.123 0.85900003 4540254
0.093000002 0.123 0.85900003 4408668
0.097000003 0.123 0.85900003 4408924
0.1 0.123 0.86000001 4540510
0.104 0.123 0.86000001 4474717
0.10700001 0.123 0.86100006 4540510
0.11100001 0.123 0.86100006 4606303
0.115 0.123 0.86200005 4671840
0.11800001 0.123 0.86100006 4540254
0.12200001 0.123 0.86200005 4540253
0.125 0.12400001 0.86200005 4277337
0.12900001 0.12400001 0.86200005 4343131
0.132 0.12400001 0.86200005 4079959
0.13600001 0.12400001 0.86300004 3817299
0.14 0.12400001 0.86400002 3751250
0.14300001 0.12400001 0.86600006 3619663
0.147 0.125 0.86900002 3619406
0.15300001 0.126 0.87800002 3751505
0.15900001 0.12900001 0.89500004 4343642
0.16600001 0.13100001 0.90900004 3224647
0.171 0.132 0.91600007 2829889
0.17500001 0.132 0.92000002 3026757
0.17900001 0.133 0.92100006 3289673
0.18300001 0.133 0.92100006 2895170
0.18700001 0.133 0.92200005 2960963
0.19100001 0.133 0.92300004 3027012
0.19500001 0.133 0.92400002 3290440
0.19900002 0.134 0.92500007 3487819
0.20300001 0.134 0.92500007 6185330
-0.123 0.13600001 0.92600006 6184555
-0.11800001 0.13500001 0.91800004 5262947
-0.11400001 0.134 0.91400003 4473433
-0.109 0.134 0.90800005 4143954
-0.105 0.133 0.90200007 3815502
-0.101 0.132 0.90000004 3881039
-0.097000003 0.132 0.89800006 3749709
-0.093000002 0.132 0.89700001 3354695
-0.090000004 0.132 0.89700001 3552072
-0.086000003 0.132 0.89700001 3486537
-0.082000002 0.132 0.89800006 3224135
-0.079000004 0.132 0.89900005 2171447
-0.075000003 0.132 0.89900005 1513771
-0.072000004 0.132 0.89800006 1382187
-0.068000004 0.13100001 0.89500004 4079443
-0.064000003 0.13000001 0.88900006 5066082
-0.060000002 0.12900001 0.88200003 4868960
-0.056000002 0.12800001 0.87600005 4408409
-0.052000001 0.12800001 0.87200004 4276823
-0.049000002 0.12800001 0.87100005 4013650
-0.045000002 0.127 0.86900002 4013650
-0.041000001 0.127 0.86700004 3816272
-0.038000003 0.127 0.86500007 3816272
-0.034000002 0.126 0.86300004 3816529
-0.031000001 0.126 0.86200005 3948115
-0.027000001 0.126 0.86100006 3750736
-0.024 0.126 0.86000001 3816529
-0.020000001 0.126 0.86000001 3816529
-0.017000001 0.126 0.85900003 3422541
-0.013 0.126 0.85800004 3685200
-0.010000001 0.125 0.85700005 3882322
-0.0070000002 0.125 0.85700005 3882322
-0.003 0.125 0.85600007 3948115
0 0.125 0.85600007 4013908
0.0040000002 0.125 0.85600007 3948115
0.0070000002 0.125 0.85500002 3948115
0.011000001 0.125 0.85500002 4013908
0.014 0.125 0.85400003 4079701
0.017000001 0.125 0.85300004 4079701
0.021000002 0.125 0.85200006 4145494
0.024 0.125 0.85200006 4211287
0.028000001 0.125 0.85200006 4145494
0.031000001 0.125 0.85200006 4277080
0.034000002 0.125 0.85300004 4211287
0.038000003 0.125 0.85300004 4277080
0.041000001 0.125 0.85400003 4277080
0.045000002 0.125 0.85300004 4277080
0.048 0.125 0.85300004 4277080
0.051000003 0.125 0.85200006 4342873
0.055000003 0.125 0.85300004 4408666
0.058000002 0.125 0.85300004 4408666
0.062000003 0.125 0.85300004 4540507
0.065000005 0.125 0.85400003 4474459
0.069000006 0.125 0.85400003 4342873
0.072000004 0.125 0.85400003 4540254
0.076000005 0.125 0.85500002 4342873
0.079000004 0.125 0.85400003 4474459
0.083000004 0.126 0.85500002 4343645
0.086000003 0.126 0.85600007 4409438
0.090000004 0.126 0.85600007 4343901
0.093000002 0.126 0.85600007 4277850
0.097000003 0.126 0.85700005 4475229
0.1 0.126 0.85700005 4475229
0.104 0.126 0.85700005 4409436
0.10700001 0.126 0.85800004 4278106
0.11100001 0.126 0.85800004 4343643
0.11400001 0.126 0.85900003 4540511
0.11800001 0.127 0.85900003 4606047
0.12100001 0.127 0.86000001 4342875
0.125 0.127 0.86000001 4408668
0.12800001 0.127 0.86000001 4342875
0.132 0.127 0.86000001 4079703
0.13500001 0.127 0.86000001 3817301
0.13900001 0.127 0.86100006 3751508
0.14300001 0.127 0.86300004 3685715
0.147 0.12800001 0.86600006 3554129
0.15200001 0.12900001 0.87300003 3685713
0.15800001 0.13100001 0.88900006 4409180
0.16500001 0.134 0.90500003 3093061
0.17 0.13500001 0.91300005 2960962
0.17500001 0.13600001 0.91700006 3289928
0.17900001 0.13600001 0.91900003 2960963
0.18300001 0.13600001 0.91900003 2829377
0.18700001 0.13600001 0.92000002 2829377
0.19100001 0.13700001 0.92100006 2895170
0.19500001 0.13700001 0.92200005 3158598
0.19900002 0.13700001 0.92200005 3290440
0.20300001 0.13700001 0.92300004 4145749
-0.12200001 0.14 0.92300004 5921380
-0.11800001 0.13900001 0.91600007 5460325
-0.11300001 0.13800001 0.91100007 4538967
-0.109 0.13700001 0.90500003 4210002
-0.105 0.13600001 0.90000004 3947087
-0.101 0.13500001 0.89700001 3815501
-0.097000003 0.13500001 0.89500004 3749966
-0.093000002 0.13500001 0.89500004 3487307
-0.089000002 0.13500001 0.89500004 3618122
-0.086000003 0.13500001 0.89500004 3552330
-0.082000002 0.13500001 0.89600003 3355464
-0.079000004 0.13500001 0.89700001 2500412
-0.075000003 0.13500001 0.89800006 1777201
-0.072000004 0.13500001 0.89700001 1381930
-0.068000004 0.13500001 0.89500004 2631998
-0.064000003 0.134 0.89000005 4539224
-0.060000002 0.133 0.88300002 5066082
-0.056000002 0.132 0.87600005 4737117
-0.052000001 0.13100001 0.87100005 4474202
-0.048 0.13100001 0.86900002 4145494
-0.045000002 0.13100001 0.86700004 4145494
-0.041000001 0.13000001 0.86500007 4079956
-0.038000003 0.13000001 0.86300004 3948114
-0.034000002 0.13000001 0.86100006 3816529
-0.031000001 0.12900001 0.86000001 3882322
-0.027000001 0.12900001 0.85900003 3751505
-0.024 0.12900001 0.85800004 3817042
-0.020000001 0.12900001 0.85700005 3751505
-0.017000001 0.12900001 0.85600007 3685712
-0.013 0.12900001 0.85500002 3554126
-0.010000001 0.12800001 0.85400003 3750735
-0.0070000002 0.12800001 0.85400003 3882579
-0.003 0.12800001 0.85300004 3882578
0 0.12800001 0.85300004 3882579
0.0040000002 0.12800001 0.85300004 3882578
0.0070000002 0.12800001 0.85200006 3882321
0.010000001 0.12800001 0.85200006 3948371
0.014 0.12800001 0.85100001 4014164
0.017000001 0.12800001 0.85000002 4013908
0.021000002 0.12800001 0.85000002 4145494
0.024 0.12800001 0.84900004 4145494
0.027000001 0.12800001 0.84900004 4079701
0.031000001 0.12800001 0.85000002 4145494
0.034000002 0.12800001 0.85000002 4013908
0.038000003 0.12800001 0.85000002 4211287
0.041000001 0.12800001 0.85100001 4079701
0.044000003 0.12800001 0.85000002 4145494
0.048 0.12800001 0.85000002 4211287
0.051000003 0.12800001 0.85000002 4211287
0.055000003 0.12800001 0.85000002 4342873
0.058000002 0.12800001 0.85100001 4408666
0.062000003 0.12800001 0.85100001 4277080
0.065000005 0.12800001 0.85200006 4211287
0.069000006 0.12800001 0.85200006 4277080
0.072000004 0.12800001 0.85200006 4342875
0.075000003 0.12800001 0.85200006 4212058
0.079000004 0.12900001 0.85200006 4277852
0.082000002 0.12900001 0.85200006 4277852
0.086000003 0.12900001 0.85300004 4277850
0.089000002 0.12900001 0.85300004 4146521
0.093000002 0.12900001 0.85400003 3949144
0.096000001 0.12900001 0.85400003 4212316
0.1 0.12900001 0.85400003 4278109
0.10300001 0.12900001 0.85500002 4343645
0.10700001 0.12900001 0.85500002 4146521
0.11000001 0.12900001 0.85500002 4409437
0.11400001 0.13000001 0.85600007 4409438
0.11700001 0.13000001 0.85600007 4080473
0.12100001 0.13000001 0.85700005 4408668
0.125 0.13000001 0.85800004 4474461
0.12800001 0.13000001 0.85800004 4342875
0.132 0.13000001 0.85800004 4277082
0.13500001 0.13000001 0.85800004 4146521
0.13900001 0.13000001 0.85900003 3883092
0.14300001 0.13100001 0.86100006 3751249
0.147 0.13100001 0.86300004 3685198
0.15100001 0.132 0.86900002 3685713
0.15700001 0.134 0.88400006 4408923
0.164 0.13700001 0.89900005 3553613
0.16900001 0.13800001 0.90900004 2895682
0.17400001 0.13900001 0.91400003 2960963
0.178 0.14 0.91600007 3158341
0.18200001 0.14 0.91600007 3092548
0.186 0.14 0.91700006 2960960
0.19000001 0.14 0.91800004 3289673
0.19400001 0.14 0.91900003 3026757
0.19800001 0.14 0.91900003 3355977
0.20200001 0.141 0.92000002 3948370
-0.12200001 0.14300001 0.91900003 6052966
-0.11700001 0.142 0.91300005 5263199
-0.11300001 0.141 0.90800005 4473172
-0.108 0.14 0.90200007 4341586
-0.104 0.13900001 0.89800006 3815244
-0.1 0.13900001 0.89500004 3749708
-0.097000003 0.13800001 0.89300007 3815502
-0.093000002 0.13800001 0.89300007 3618637
-0.089000002 0.13800001 0.89300007 3683658
-0.086000003 0.13800001 0.89300007 3618123
-0.082000002 0.13800001 0.89400005 3420744
-0.079000004 0.13900001 0.89500004 2631741
-0.075000003 0.13900001 0.89600003 2303032
-0.072000004 0.13900001 0.89600003 1645102
-0.068000004 0.13800001 0.89400005 1446953
-0.064000003 0.13800001 0.89100003 3815501
-0.060000002 0.13700001 0.88400006 4736861
-0.056000002 0.13600001 0.87700003 4934496
-0.052000001 0.13500001 0.87100005 4802911
-0.048 0.134 0.86800003 4539995
-0.045000002 0.134 0.86500007 4408409
-0.041000001 0.133 0.86300004 4079444
-0.038000003 0.133 0.86100006 4013651
-0.034000002 0.133 0.85900003 3948115
-0.031000001 0.133 0.85800004 3882322
-0.027000001 0.132 0.85700005 4013908
-0.024 0.132 0.85600007 3882322
-0.020000001 0.132 0.85500002 3816529
-0.017000001 0.132 0.85400003 3750993
-0.013 0.132 0.85300004 3619920
-0.010000001 0.132 0.85200006 3619919
-0.0070000002 0.132 0.85200006 3816529
-0.003 0.13100001 0.85100001 3816530
0 0.13100001 0.85000002 3816530
0.0040000002 0.13100001 0.85000002 3948117
0.0070000002 0.13100001 0.84900004 3948115
0.010000001 0.13100001 0.84900004 3883091
0.014 0.13100001 0.84800005 3817298
0.017000001 0.13100001 0.84800005 3948115
0.021000002 0.13100001 0.84700006 4013908
0.024 0.13100001 0.84700006 4145494
0.027000001 0.13100001 0.84700006 4079701
0.031000001 0.13100001 0.84800005 4079701
0.034000002 0.13100001 0.84800005 4211287
0.038000003 0.13100001 0.84800005 4145494
0.041000001 0.13100001 0.84800005 4145494
0.044000003 0.13100001 0.84800005 4145494
0.048 0.13100001 0.84700006 3948884
0.051000003 0.13100001 0.84700006 4146264
0.055000003 0.13100001 0.84700006 4014678
0.058000002 0.13100001 0.84800005 3948885
0.062000003 0.13100001 0.84900004 4014677
0.065000005 0.13100001 0.84900004 4212056
0.068000004 0.132 0.85000002 4277850
0.072000004 0.13100001 0.84900004 4212059
0.075000003 0.13100001 0.84900004 4146266
0.079000004 0.132 0.84900004 4146266
0.082000002 0.132 0.85000002 4212059
0.086000003 0.132 0.85000002 4146523
0.089000002 0.132 0.85000002 4212316
0.093000002 0.132 0.85100001 4146523
0.096000001 0.132 0.85200006 4409695
0.1 0.132 0.85200006 4277852
0.10300001 0.132 0.85200006 4343645
0.10600001 0.132 0.85200006 4212316
0.11000001 0.132 0.85300004 4212059
0.11400001 0.133 0.85300004 4277082
0.11700001 0.133 0.85400003 4211289
0.12100001 0.133 0.85400003 4080471
0.12400001 0.133 0.85500002 4146264
0.12800001 0.133 0.85500002 4212058
0.13100001 0.133 0.85500002 4277595
0.13500001 0.133 0.85600007 4080471
0.13900001 0.134 0.85700005 3948885
0.142 0.134 0.85800004 3882324
0.14600001 0.134 0.86000001 3684945
0.15100001 0.13500001 0.86500007 3685715
0.156 0.13700001 0.87800002 3948630
0.163 0.13900001 0.89300007 3619150
0.16900001 0.141 0.90400004 2566717
0.17300001 0.142 0.91000003 2697790
0.178 0.14300001 0.91300005 2697791
0.18200001 0.14300001 0.91300005 3092549
0.186 0.14300001 0.91400003 2829377
0.19000001 0.14300001 0.91500002 2763841
0.19400001 0.14400001 0.91600007 2698303
0.19700001 0.14400001 0.91600007 3422026
0.20200001 0.14400001 0.91700006 3750991
-0.12100001 0.14600001 0.91500002 5789792
-0.11700001 0.14500001 0.90900004 5065560
-0.11300001 0.14400001 0.90500003 4473171
-0.108 0.14300001 0.89900005 4341589
-0.104 0.14300001 0.89500004 3947088
-0.1 0.142 0.89200002 3881295
-0.096000001 0.142 0.89100003 3947088
-0.093000002 0.142 0.89100003 3815502
-0.089000002 0.142 0.89100003 3683403
-0.086000003 0.142 0.89100003 3683403
-0.082000002 0.142 0.89200002 3551817
-0.079000004 0.142 0.89300007 3420231
-0.075000003 0.142 0.89400005 2697533
-0.071000002 0.142 0.89400005 1907504
-0.068000004 0.142 0.89300007 1710379
-0.064000003 0.142 0.89100003 3025726
-0.060000002 0.141 0.88500005 4539224
-0.056000002 0.13900001 0.87800002 4999775
-0.052000001 0.13800001 0.87200004 4933983
-0.048 0.13800001 0.86700004 4802396
-0.045000002 0.13700001 0.86300004 4473432
-0.041000001 0.13700001 0.86100006 4473431
-0.038000003 0.13600001 0.86000001 4210260
-0.034000002 0.13600001 0.85800004 4078931
-0.031000001 0.13600001 0.85600007 4078930
-0.027000001 0.13600001 0.85500002 4079190
-0.024 0.13500001 0.85300004 4079190
-0.020000001 0.13500001 0.85200006 3750481
-0.017000001 0.13500001 0.85100001 3750481
-0.013 0.13500001 0.85000002 3816274
-0.010000001 0.13500001 0.84900004 3882066
-0.0070000002 0.13500001 0.84900004 3882323
-0.003 0.134 0.84800005 3882324
0 0.134 0.84700006 3882324
0.0040000002 0.134 0.84800005 3882324
0.0070000002 0.134 0.84700006 3948117
0.010000001 0.134 0.84600002 3751508
0.014 0.134 0.84500003 3685715
0.017000001 0.134 0.84500003 3948117
0.021000002 0.134 0.84500003 3948117
0.024 0.134 0.84400004 3948115
0.027000001 0.134 0.84500003 3948114
0.031000001 0.134 0.84500003 4014164
0.034000002 0.134 0.84500003 4013908
0.038000003 0.134 0.84600002 4211287
0.041000001 0.134 0.84600002 4145494
0.044000003 0.134 0.84500003 4145494
0.048 0.134 0.84500003 4079958
0.051000003 0.134 0.84400004 4014678
0.054000001 0.134 0.84500003 4080727
0.058000002 0.134 0.84500003 3949398
0.061000004 0.134 0.84600002 4146777
0.065000005 0.13500001 0.84700006 4344156
0.068000004 0.13500001 0.84700006 4080984
0.072000004 0.13500001 0.84700006 4080728
0.075000003 0.13500001 0.84700006 4212059
0.078000002 0.13500001 0.84600002 4146523
0.082000002 0.13500001 0.84700006 4080730
0.085000001 0.13500001 0.84800005 4080730
0.089000002 0.13500001 0.84800005 4146523
0.092000008 0.13500001 0.84900004 4146523
0.096000001 0.13500001 0.84900004 3949144
0.099000007 0.13500001 0.84900004 4080473
0.10300001 0.13500001 0.85000002 4146266
0.10600001 0.13500001 0.85000002 4146266
0.11000001 0.13600001 0.85000002 4146266
0.11300001 0.13600001 0.85000002 4277852
0.11700001 0.13600001 0.85100001 4342875
0.12 0.13600001 0.85100001 4146777
0.12400001 0.13600001 0.85200006 4080728
0.127 0.13600001 0.85200006 3948885
0.13100001 0.13600001 0.85200006 3948885
0.134 0.13600001 0.85300004 4014679
0.13800001 0.13700001 0.85400003 3948886
0.142 0.13700001 0.85500002 3948372
0.14600001 0.13700001 0.85700005 3685201
0.15000001 0.13800001 0.86100006 3685716
0.155 0.14 0.87200004 4080473
0.16100001 0.142 0.88400006 3422541
0.16700001 0.14400001 0.89700001 2698817
0.17200001 0.14500001 0.90400004 2829377
0.177 0.14600001 0.90800005 2763584
0.18100001 0.14600001 0.90900004 2829634
0.185 0.14600001 0.91000003 2829634
0.18900001 0.14600001 0.91100007 2894916
0.193 0.147 0.91300005 2961476
0.19700001 0.147 0.91300005 3290440
0.20100001 0.147 0.91400003 3685197
0.20500001 0.147 0.91400003 12896473
-0.12100001 0.149 0.91200006 5461081
-0.11700001 0.148 0.90700006 5065818
-0.112 0.147 0.90200007 4670806
-0.108 0.147 0.89700001 4407381
-0.104 0.14600001 0.89300007 4144209
-0.1 0.14500001 0.89000005 4012623
-0.096000001 0.14500001 0.88900006 3749708
-0.092000008 0.14500001 0.88800007 3815502
-0.089000002 0.14500001 0.88800007 3683403
-0.085000001 0.14500001 0.88900006 3683403
-0.082000002 0.14500001 0.88900006 3551817
-0.078000002 0.14500001 0.89100003 3486024
-0.075000003 0.14500001 0.89100003 2895169
-0.071000002 0.14500001 0.89200002 2171446
-0.068000004 0.14500001 0.89200002 1710125
-0.064000003 0.14500001 0.89100003 1841711
-0.060000002 0.14400001 0.88700002 4078673
-0.056000002 0.14300001 0.88000005 4868190
-0.052000001 0.142 0.87300003 4933983
-0.048 0.141 0.86700004 4736604
-0.045000002 0.14 0.86200005 4605018
-0.041000001 0.14 0.86000001 4342359
-0.038000003 0.14 0.85800004 4276566
-0.034000002 0.13900001 0.85600007 4342359
-0.031000001 0.13900001 0.85500002 4342104
-0.027000001 0.13900001 0.85400003 4276053
-0.024 0.13900001 0.85200006 4145237
-0.020000001 0.13800001 0.85100001 3947860
-0.017000001 0.13800001 0.85000002 3882324
-0.013 0.13800001 0.84800005 4079703
-0.010000001 0.13800001 0.84800005 3947604
-0.0070000002 0.13800001 0.84700006 4079703
-0.003 0.13800001 0.84600002 4013910
0 0.13700001 0.84500003 3817301
0.0040000002 0.13700001 0.84500003 3882324
0.0070000002 0.13700001 0.84400004 3882324
0.010000001 0.13700001 0.84400004 3948117
0.014 0.13700001 0.84300005 3948117
0.017000001 0.13700001 0.84300005 3948115
0.021000002 0.13700001 0.84300005 4079701
0.024 0.13700001 0.84200007 3883092
0.027000001 0.13700001 0.84300005 3883092
0.031000001 0.13700001 0.84300005 3882835
0.034000002 0.13700001 0.84300005 3948115
0.037 0.13700001 0.84300005 4145494
0.041000001 0.13700001 0.84300005 4145494
0.044000003 0.13700001 0.84300005 4079701
0.048 0.13700001 0.84200007 4014678
0.051000003 0.13700001 0.84200007 4014678
0.054000001 0.13700001 0.84200007 4014678
0.058000002 0.13700001 0.84300005 3948885
0.061000004 0.13700001 0.84400004 4146266
0.065000005 0.13800001 0.84400004 4343645
0.068000004 0.13800001 0.84400004 4212059
0.071000002 0.13800001 0.84500003 4146266
0.075000003 0.13800001 0.84400004 4146266
0.078000002 0.13800001 0.84400004 4014680
0.082000002 0.13800001 0.84500003 4212059
0.085000001 0.13800001 0.84500003 4146266
0.089000002 0.13800001 0.84500003 4146266
0.092000008 0.13800001 0.84500003 4212059
0.096000001 0.13800001 0.84600002 4146266
0.099000007 0.13800001 0.84600002 3948887
0.10200001 0.13800001 0.84600002 4080473
0.10600001 0.13800001 0.84700006 4014680
0.109 0.13800001 0.84700006 4277852
0.11300001 0.13900001 0.84700006 4212059
0.116 0.13900001 0.84700006 4277852
0.12 0.13900001 0.84700006 4277850
0.123 0.13900001 0.84800005 4080471
0.127 0.13900001 0.84800005 4146007
0.13000001 0.13900001 0.84900004 4145494
0.134 0.13900001 0.85000002 4013910
0.13800001 0.14 0.85100001 3817044
0.141 0.14 0.85200006 3619920
0.14500001 0.14 0.85400003 3422541
0.149 0.141 0.85800004 3422541
0.155 0.142 0.86700004 3751506
0.16000001 0.14400001 0.87800002 3027013
0.16600001 0.14600001 0.89000005 2763584
0.171 0.148 0.89800006 2829634
0.17600001 0.149 0.90300006 2895427
0.18000001 0.149 0.90500003 2895169
0.18400002 0.149 0.90600002 3289927
0.18800001 0.15000001 0.90800005 3093061
0.193 0.15000001 0.91000003 3224134
0.19700001 0.15000001 0.91100007 3224134
0.20100001 0.15100001 0.91200006 3421513
0.20400001 0.15100001 0.91200006 5986914
-0.12 0.15200001 0.90800005 5066068
-0.116 0.15100001 0.90300006 5328990
-0.112 0.15100001 0.89900005 4736857
-0.108 0.15000001 0.89500004 4209747
-0.104 0.149 0.89100003 3946831
-0.1 0.149 0.88800007 3946574
-0.096000001 0.148 0.88600004 3881037
-0.092000008 0.148 0.88600004 4144209
-0.089000002 0.148 0.88600004 3683403
-0.085000001 0.148 0.88700002 3617610
-0.082000002 0.148 0.88700002 3617867
-0.078000002 0.148 0.88800007 3618123
-0.075000003 0.149 0.88900006 3158342
-0.071000002 0.149 0.89000005 2368056
-0.068000004 0.149 0.89100003 1710638
-0.064000003 0.149 0.89100003 1644073
-0.060000002 0.148 0.88800007 2565947
-0.056000002 0.147 0.88200003 4539995
-0.052000001 0.14600001 0.87500006 4802397
-0.048 0.14500001 0.86700004 4802399
-0.045000002 0.14400001 0.86200005 4473434
-0.041000001 0.14300001 0.85900003 4276568
-0.038000003 0.14300001 0.85700005 4210775
-0.034000002 0.14300001 0.85500002 4342362
-0.031000001 0.142 0.85400003 4342362
-0.027000001 0.142 0.85200006 4276825
-0.024 0.142 0.85000002 4013397
-0.020000001 0.142 0.84900004 3948116
-0.017000001 0.141 0.84800005 3947858
-0.013 0.141 0.84600002 4145494
-0.010000001 0.141 0.84500003 4013397
-0.0060000001 0.141 0.84400004 4079703
-0.003 0.141 0.84300005 3882324
0 0.14 0.84200007 3817301
0.0040000002 0.14 0.84200007 4013910
0.0070000002 0.14 0.84100002 4079703
0.010000001 0.14 0.84000003 4013910
0.014 0.14 0.84000003 3948117
0.017000001 0.14 0.84000003 3948117
0.020000001 0.14 0.84000003 4079701
0.024 0.14 0.84000003 4014678
0.027000001 0.14 0.84000003 3948884
0.031000001 0.14 0.84000003 3948627
0.034000002 0.14 0.84000003 3948115
0.037 0.14 0.84000003 3948115
0.041000001 0.14 0.84000003 4342873
0.044000003 0.14 0.84000003 4145494
0.047000002 0.14 0.84000003 4211286
0.051000003 0.14 0.83900005 4277080
0.054000001 0.14 0.84000003 4146008
0.058000002 0.14 0.84100002 4014680
0.061000004 0.14 0.84100002 3948887
0.064000003 0.141 0.84200007 3883094
0.068000004 0.141 0.84200007 3948887
0.071000002 0.141 0.84200007 4014680
0.075000003 0.141 0.84100002 4146266
0.078000002 0.141 0.84100002 4080473
0.081 0.141 0.84200007 4014680
0.085000001 0.141 0.84200007 3948887
0.088000007 0.141 0.84200007 4014680
0.092000008 0.141 0.84300005 4212059
0.095000006 0.141 0.84300005 4277852
0.099000007 0.141 0.84300005 4343645
0.10200001 0.141 0.84400004 4146266
0.10600001 0.142 0.84500003 4212059
0.109 0.142 0.84500003 4146523
0.112 0.142 0.84400004 4212059
0.116 0.142 0.84500003 4212316
0.12 0.142 0.84500003 4342875
0.123 0.142 0.84600002 4145496
0.126 0.142 0.84500003 4079703
0.13000001 0.142 0.84600002 4277082
0.134 0.142 0.84700006 4211289
0.13700001 0.14300001 0.84800005 4145496
0.141 0.14300001 0.84900004 4079704
0.14500001 0.14300001 0.85100001 3685458
0.149 0.14400001 0.85500002 3421772
0.15400001 0.14500001 0.86300004 2698048
0.16000001 0.147 0.87400001 2829633
0.16500001 0.149 0.88500005 2698046
0.17 0.15100001 0.89300007 2631998
0.17500001 0.15200001 0.89800006 2895170
0.17900001 0.15200001 0.90100002 3092549
0.18300001 0.15200001 0.90200007 3224135
0.18800001 0.15300001 0.90400004 2829376
0.192 0.15300001 0.90600002 3355718
0.19600001 0.15400001 0.90800005 3158341
0.2 0.15400001 0.90900004 3553097
0.20400001 0.15400001 0.91000003 4473162
-0.12 0.155 0.90400004 5329498
-0.116 0.155 0.90000004 4934231
-0.112 0.15400001 0.89700001 4407894
-0.10700001 0.15300001 0.89200002 4078161
-0.10300001 0.15200001 0.88800007 3881038
-0.1 0.15200001 0.88600004 3946574
-0.096000001 0.15200001 0.88400006 3946575
-0.092000008 0.15200001 0.88400006 3880782
-0.088000007 0.15100001 0.88300002 3881295
-0.085000001 0.15100001 0.88400006 3683916
-0.082000002 0.15200001 0.88500005 3552330
-0.078000002 0.15200001 0.88600004 3354950
-0.075000003 0.15200001 0.88700002 3026756
-0.071000002 0.15200001 0.88800007 2632255
-0.068000004 0.15200001 0.88900006 1974067
-0.064000003 0.15200001 0.88900006 1513514
-0.060000002 0.15200001 0.88800007 1513000
-0.056000002 0.15100001 0.88300002 3947086
-0.052000001 0.15000001 0.87600005 4670810
-0.049000002 0.149 0.86900002 4605534
-0.045000002 0.147 0.86200005 4473950
-0.041000001 0.147 0.85800004 4407641
-0.037 0.14600001 0.85600007 4342105
-0.034000002 0.14600001 0.85400003 4342362
-0.030000001 0.14600001 0.85200006 4342362
-0.027000001 0.14500001 0.85000002 4211289
-0.024 0.14500001 0.84900004 4079703
-0.020000001 0.14500001 0.84700006 4210776
-0.017000001 0.14400001 0.84600002 4013397
-0.013 0.14400001 0.84400004 4079190
-0.010000001 0.14400001 0.84300005 3948115
-0.0060000001 0.14400001 0.84200007 3948117
-0.003 0.14400001 0.84100002 3948117
0 0.14300001 0.84000003 4013397
0.0040000002 0.14300001 0.84000003 3947864
0.0070000002 0.14300001 0.83900005 4013912
0.010000001 0.14300001 0.83800006 4013911
0.014 0.14300001 0.83700001 3948117
0.017000001 0.14300001 0.83700001 4079701
0.020000001 0.14300001 0.83700001 4013908
0.024 0.14300001 0.83600003 4013908
0.027000001 0.14300001 0.83700001 4013907
0.030000001 0.14300001 0.83700001 3948371
0.034000002 0.14300001 0.83700001 3882322
0.037 0.14300001 0.83700001 4079701
0.041000001 0.14300001 0.83700001 4013908
0.044000003 0.14300001 0.83700001 4013908
0.047000002 0.14300001 0.83700001 4014678
0.051000003 0.14300001 0.83600003 3948885
0.054000001 0.14300001 0.83600003 3883094
0.057000004 0.14300001 0.83700001 4014680
0.061000004 0.14300001 0.83800006 4014680
0.064000003 0.14400001 0.83900005 3948887
0.068000004 0.14400001 0.83900005 3948887
0.071000002 0.14400001 0.83900005 4080473
0.074000001 0.14400001 0.83900005 4014937
0.078000002 0.14400001 0.83900005 3949144
0.081 0.14400001 0.83900005 4014680
0.085000001 0.14400001 0.84000003 4211546
0.088000007 0.14400001 0.83900005 4277081
0.092000008 0.14400001 0.84000003 4277080
0.095000006 0.14400001 0.84000003 4343386
0.098000005 0.14400001 0.84000003 4146264
0.10200001 0.14400001 0.84100002 4212057
0.105 0.14500001 0.84200007 4212059
0.109 0.14500001 0.84200007 4146266
0.112 0.14500001 0.84200007 4080473
0.116 0.14500001 0.84200007 4146266
0.119 0.14500001 0.84300005 4342873
0.123 0.14500001 0.84300005 4080471
0.126 0.14500001 0.84300005 4080472
0.13000001 0.14500001 0.84400004 4080472
0.133 0.14500001 0.84400004 3948117
0.13700001 0.14600001 0.84500003 3882322
0.141 0.14600001 0.84600002 3750736
0.14500001 0.14600001 0.84900004 3553357
0.149 0.147 0.85200006 4145748
0.15300001 0.148 0.86000001 2500924
0.15900001 0.15000001 0.87000006 2434875
0.16500001 0.15200001 0.88100004 3224390
0.17 0.15400001 0.89000005 3487307
0.17400001 0.155 0.89400005 3487307
0.17900001 0.155 0.89700001 3158342
0.18300001 0.156 0.89900005 3092549
0.18700001 0.156 0.90100002 3158342
0.19100001 0.156 0.90300006 3026756
0.19500001 0.15700001 0.90500003 3289927
0.2 0.15700001 0.90700006 3355720
0.20400001 0.15700001 0.90700006 4144715
-0.125 0.16100001 0.91300005 8750481
-0.12 0.15800001 0.90100002 5065817
-0.116 0.15800001 0.89800006 5263197
-0.11100001 0.15700001 0.89400005 4407636
-0.10700001 0.156 0.89000005 4210001
-0.10300001 0.156 0.88600004 3749196
-0.099000007 0.155 0.88300002 3683403
-0.096000001 0.155 0.88200003 3814989
-0.092000008 0.155 0.88100004 3880782
-0.088000007 0.155 0.88100004 3881037
-0.085000001 0.155 0.88200003 3683658
-0.081 0.155 0.88200003 3552330
-0.078000002 0.155 0.88400006 3223365
-0.074000001 0.155 0.88500005 2960708
-0.071000002 0.155 0.88600004 2829636
-0.067000002 0.155 0.88700002 2105653
-0.064000003 0.156 0.88800007 1447723
-0.060000002 0.155 0.88700002 1644843
-0.056000002 0.155 0.88300002 2828860
-0.053000003 0.15400001 0.87800002 4802397
-0.049000002 0.15200001 0.86900002 4605018
-0.045000002 0.15100001 0.86300004 4473434
-0.041000001 0.15000001 0.85800004 4078932
-0.037 0.15000001 0.85500002 4342104
-0.034000002 0.149 0.85300004 4539741
-0.030000001 0.149 0.85100001 4473947
-0.027000001 0.149 0.84900004 4473690
-0.023000002 0.148 0.84700006 4342362
-0.020000001 0.148 0.84600002 4210775
-0.017000001 0.148 0.84400004 4013397
-0.013 0.147 0.84200007 4013397
-0.010000001 0.147 0.84100002 3816018
-0.0060000001 0.147 0.84000003 3881811
-0.003 0.147 0.83900005 3816531
0 0.147 0.83800006 3816531
0.0040000002 0.147 0.83800006 3816531
0.0070000002 0.14600001 0.83600003 4013910
0.010000001 0.14600001 0.83600003 4079703
0.014 0.14600001 0.83500004 3882324
0.017000001 0.14600001 0.83400005 4013910
0.020000001 0.14600001 0.83400005 3816531
0.024 0.14600001 0.83300006 3816530
0.027000001 0.14600001 0.83300006 3948115
0.030000001 0.14600001 0.83300006 3948115
0.034000002 0.14600001 0.83400005 3882322
0.037 0.14600001 0.83400005 3948115
0.040000003 0.14600001 0.83300006 4013908
0.044000003 0.14600001 0.83300006 4079701
0.047000002 0.14600001 0.83300006 4079702
0.050000001 0.14600001 0.83300006 4080215
0.054000001 0.14600001 0.83300006 4014680
0.057000004 0.14600001 0.83400005 4014680
0.061000004 0.14600001 0.83400005 4080473
0.064000003 0.14600001 0.83500004 4146266
0.067000002 0.14600001 0.83500004 4080473
0.071000002 0.147 0.83600003 4146266
0.074000001 0.147 0.83600003 4014680
0.078000002 0.147 0.83600003 4080473
0.081 0.147 0.83700001 4080473
0.084000006 0.147 0.83700001 4211546
0.088000007 0.147 0.83600003 4211288
0.091000006 0.147 0.83700001 4145496
0.095000006 0.147 0.83700001 4145494
0.098000005 0.147 0.83700001 4145753
0.10200001 0.147 0.83800006 4211544
0.105 0.147 0.83900005 4342875
0.108 0.148 0.83900005 4211289
0.112 0.148 0.83900005 4277082
0.115 0.148 0.84000003 4211289
0.119 0.148 0.84000003 4146521
0.12200001 0.148 0.84000003 4014935
0.126 0.148 0.84000003 4014678
0.12900001 0.148 0.84100002 4014677
0.133 0.148 0.84100002 3948370
0.13600001 0.149 0.84200007 3816784
0.14 0.149 0.84400004 3816784
0.14400001 0.149 0.84600002 3619406
0.148 0.15000001 0.85000002 3553612
0.15300001 0.15100001 0.85700005 3685198
0.15900001 0.15300001 0.86800003 2171697
0.164 0.155 0.87900007 3289924
0.16900001 0.15700001 0.88700002 3487306
0.17400001 0.15800001 0.89100003 3355721
0.178 0.15800001 0.89400005 3487307
0.18200001 0.15900001 0.89600003 3289674
0.18700001 0.15900001 0.89800006 3092806
0.19100001 0.16000001 0.90100002 2829634
0.19500001 0.16000001 0.90300006 3355721
0.19900002 0.16100001 0.90500003 3684686
0.20300001 0.16100001 0.90600002 3881804
-0.119 0.162 0.89900005 5460320
-0.115 0.16100001 0.89500004 4670551
-0.11100001 0.16000001 0.89200002 4670553
-0.10700001 0.16000001 0.88800007 4275541
-0.10300001 0.15900001 0.88400006 3814989
-0.099000007 0.15800001 0.88100004 3946575
-0.095000006 0.15800001 0.87900007 3814989
-0.092000008 0.15800001 0.87900007 3551817
-0.088000007 0.15800001 0.87900007 3749196
-0.085000001 0.15800001 0.88000005 3618123
-0.081 0.15800001 0.88000005 3552074
-0.078000002 0.15800001 0.88200003 3223367
-0.074000001 0.15800001 0.88300002 3157062
-0.071000002 0.15900001 0.88400006 3223367
-0.067000002 0.15900001 0.88500005 2565435
-0.064000003 0.15900001 0.88600004 1710639
-0.060000002 0.15900001 0.88600004 1513257
-0.057000004 0.15800001 0.88400006 1644331
-0.053000003 0.15700001 0.87900007 4078673
-0.049000002 0.156 0.87000006 4407639
-0.045000002 0.155 0.86300004 4012883
-0.041000001 0.15300001 0.85700005 4078673
-0.037 0.15300001 0.85400003 4473432
-0.034000002 0.15300001 0.85200006 4342361
-0.030000001 0.15200001 0.85000002 4342362
-0.027000001 0.15200001 0.84800005 4605018
-0.023000002 0.15100001 0.84600002 4342616
-0.020000001 0.15100001 0.84500003 4145237
-0.017000001 0.15100001 0.84200007 4079444
-0.013 0.15100001 0.84100002 3947858
-0.010000001 0.15000001 0.83900005 3948117
-0.0060000001 0.15000001 0.83800006 3948117
-0.003 0.15000001 0.83700001 3750738
0 0.15000001 0.83600003 3684945
0.0040000002 0.149 0.83500004 3750738
0.0070000002 0.149 0.83400005 3816531
0.010000001 0.149 0.83200002 3817301
0.014 0.149 0.83200002 3751508
0.017000001 0.149 0.83100003 4013910
0.020000001 0.149 0.83100003 4013910
0.024 0.149 0.83000004 3882324
0.027000001 0.149 0.83000004 4013910
0.030000001 0.149 0.83000004 3882324
0.034000002 0.149 0.83000004 3948117
0.037 0.149 0.83000004 3883094
0.040000003 0.149 0.83000004 4014680
0.044000003 0.149 0.83000004 3883094
0.047000002 0.149 0.83000004 4080473
0.050000001 0.149 0.83000004 3948887
0.054000001 0.149 0.83000004 3883094
0.057000004 0.149 0.83100003 3883351
0.060000002 0.149 0.83100003 4014678
0.064000003 0.149 0.83200002 3948885
0.067000002 0.149 0.83200002 3948885
0.071000002 0.149 0.83300006 3948885
0.074000001 0.149 0.83300006 3883094
0.077000007 0.15000001 0.83400005 4146266
0.081 0.15000001 0.83400005 4080473
0.084000006 0.15000001 0.83400005 4146266
0.088000007 0.15000001 0.83400005 4146010
0.091000006 0.15000001 0.83400005 4211289
0.094000004 0.15000001 0.83400005 4277082
0.098000005 0.15000001 0.83400005 4014678
0.101 0.15000001 0.83500004 4146264
0.105 0.15000001 0.83600003 4211289
0.108 0.15000001 0.83600003 4277082
0.112 0.15000001 0.83600003 4342875
0.115 0.15100001 0.83700001 4277082
0.119 0.15100001 0.83700001 4277852
0.12200001 0.15100001 0.83700001 4343645
0.125 0.15100001 0.83700001 4146264
0.12900001 0.15100001 0.83800006 4080471
0.132 0.15100001 0.83800006 3948887
0.13600001 0.15100001 0.83900005 3817044
0.14 0.15200001 0.84100002 3684943
0.14400001 0.15200001 0.84400004 3553612
0.148 0.15300001 0.84900004 3421767
0.15300001 0.155 0.85600007 3553356
0.15800001 0.15700001 0.86600006 1777195
0.164 0.15900001 0.87700003 3092546
0.16900001 0.16000001 0.88300002 3289928
0.17300001 0.16100001 0.88700002 3026755
0.177 0.16100001 0.89000005 3618892
0.18200001 0.162 0.89300007 3092548
0.186 0.162 0.89500004 2895427
0.19000001 0.163 0.89800006 2895427
0.19500001 0.164 0.90100002 3158342
0.19900002 0.164 0.90300006 3355721
0.20300001 0.164 0.90400004 3289927
-0.119 0.16500001 0.89700001 5262688
-0.115 0.164 0.89300007 4802139
-0.11100001 0.164 0.89000005 4538967
-0.10700001 0.163 0.88500005 4275796
-0.10300001 0.162 0.88100004 3946575
-0.099000007 0.162 0.87900007 3617610
-0.095000006 0.16100001 0.87700003 3814990
-0.092000008 0.16100001 0.87700003 3814989
-0.088000007 0.16100001 0.87700003 3749709
-0.085000001 0.16100001 0.87800002 3618123
-0.081 0.16100001 0.87800002 3618125
-0.078000002 0.16100001 0.87900007 3486796
-0.074000001 0.162 0.88100004 3092038
-0.071000002 0.162 0.88200003 3223624
-0.067000002 0.162 0.88300002 2566204
-0.064000003 0.162 0.88500005 1974067
-0.060000002 0.162 0.88500005 1447721
-0.056000002 0.162 0.88300002 1513516
-0.053000003 0.16100001 0.87900007 2433848
-0.049000002 0.16000001 0.87100005 4144981
-0.045000002 0.15800001 0.86300004 3749967
-0.041000001 0.15700001 0.85800004 4013139
-0.037 0.156 0.85400003 4144725
-0.034000002 0.156 0.85200006 4144981
-0.030000001 0.156 0.85000002 4145238
-0.027000001 0.155 0.84800005 4210261
-0.023000002 0.155 0.84600002 4144467
-0.020000001 0.155 0.84400004 4078674
-0.017000001 0.15400001 0.84100002 4013651
-0.013 0.15400001 0.84000003 3947858
-0.010000001 0.15300001 0.83800006 3947858
-0.0060000001 0.15300001 0.83700001 3947858
-0.003 0.15300001 0.83600003 3882322
0 0.15300001 0.83400005 3816529
0.0040000002 0.15200001 0.83300006 3750738
0.0070000002 0.15200001 0.83100003 3882324
0.010000001 0.15200001 0.83000004 3882322
0.014 0.15200001 0.82900006 3816529
0.017000001 0.15200001 0.82800007 4211289
0.020000001 0.15200001 0.82800007 4079703
0.024 0.15100001 0.82700002 4013910
0.027000001 0.15100001 0.82700002 4145496
0.030000001 0.15100001 0.82700002 4079703
0.033 0.15100001 0.82700002 4013910
0.037 0.15100001 0.82700002 4013910
0.040000003 0.15100001 0.82700002 3882838
0.043000001 0.15200001 0.82700002 4080216
0.047000002 0.15200001 0.82700002 4146266
0.050000001 0.15200001 0.82700002 3948887
0.053000003 0.15200001 0.82800007 3883351
0.057000004 0.15200001 0.82800007 4014937
0.060000002 0.15200001 0.82900006 4014680
0.064000003 0.15200001 0.82900006 4014680
0.067000002 0.15200001 0.82900006 4014680
0.07 0.15200001 0.82900006 3883094
0.074000001 0.15200001 0.83000004 4146523
0.077000007 0.15200001 0.83000004 4014937
0.081 0.15300001 0.83100003 4080473
0.084000006 0.15300001 0.83200002 4212059
0.087000005 0.15300001 0.83200002 4080472
0.091000006 0.15300001 0.83200002 4080472
0.094000004 0.15300001 0.83200002 4146266
0.098000005 0.15300001 0.83200002 4474460
0.101 0.15300001 0.83200002 4342874
0.104 0.15300001 0.83300006 4277080
0.108 0.15300001 0.83300006 4277080
0.11100001 0.15400001 0.83400005 4606045
0.115 0.15400001 0.83400005 4408666
0.11800001 0.15400001 0.83400005 4277082
0.12200001 0.15400001 0.83500004 4342873
0.125 0.15400001 0.83500004 4408667
0.12900001 0.15400001 0.83500004 4277081
0.132 0.15400001 0.83600003 4080216
0.13600001 0.155 0.83700001 4013910
0.14 0.155 0.83900005 3750738
0.14400001 0.156 0.84300005 3553358
0.148 0.15700001 0.84900004 3290182
0.15300001 0.15800001 0.85600007 2763836
