# .PCD v0.7 - Point Cloud Data file format
VERSION 0.7
FIELDS x y z rgb
SIZE 4 4 4 4
TYPE F F F U
COUNT 1 1 1 1
WIDTH 1175
HEIGHT 1
VIEWPOINT 0 0 0 1 0 0 0
POINTS 1175
DATA ascii
-0.15100001 0.18300001 0.62800002 5396843
-0.148 0.1825 0.62600005 5396330
-0.15100001 0.18700001 0.62800002 5067621
-0.147 0.18800001 0.62566668 5132130
-0.15150002 0.19150001 0.62849998 5001058
-0.14666666 0.19233334 0.62599999 4935007
-0.14300001 0.19400001 0.625 4606041
-0.15200001 0.19600001 0.62900001 4868959
-0.148 0.19700001 0.62766671 4541276
-0.14300001 0.19700001 0.625 4672091
-0.15000001 0.20400001 0.62900001 5263715
-0.14700001 0.20133334 0.62766671 4738142
-0.14300001 0.2015 0.62600005 4934494
-0.15000001 0.208 0.62849998 5132641
-0.14650001 0.20700002 0.62650001 5263457
-0.14300001 0.20500001 0.625 5198951
-0.15000001 0.21200001 0.62700003 5134436
-0.14600001 0.21100001 0.625 4870237
-0.15000001 0.215 0.62900001 5528680
-0.116 0.25500003 0.625 7837874
0.092500001 -0.18300001 0.63349998 14273750
0.097500004 -0.18300001 0.63300002 14339541
0.103 -0.18300001 0.63200003 14076628
0.10800001 -0.18300001 0.63200003 13551056
0.112 -0.18300001 0.63300002 13749207
0.11650001 -0.1825 0.63300002 13156559
0.148 -0.185 0.634 9671062
0.15000001 -0.18200001 0.63300002 9408670
0.078000002 -0.177 0.63300002 14996696
0.081750005 -0.1785 0.63249999 14273492
0.086333334 -0.17866667 0.63166666 14076113
0.092000008 -0.18000001 0.63100004 13747405
0.097500004 -0.18000001 0.63100004 13616075
0.10250001 -0.18000001 0.63000005 13023939
0.1075 -0.18000001 0.63000005 13682126
0.112 -0.18000001 0.63100004 13221319
0.11633334 -0.17766666 0.63066673 13090504
0.12 -0.17750001 0.634 3617603
0.15125 -0.1785 0.63350004 5200501
0.155 -0.17750001 0.63050008 7040639
0.075999998 -0.17300002 0.63166672 15653598
0.11700001 -0.17200001 0.63100004 13616591
0.13750002 -0.17250001 0.634 3093068
0.14274999 -0.17250001 0.63300002 3160149
0.14766668 -0.17200001 0.63333333 2371662
0.15200001 -0.17250001 0.63174999 3951463
0.155 -0.17400001 0.63100004 3951464
0.072500005 -0.16750002 0.63250005 16442599
0.11700001 -0.16850001 0.63300002 12827590
0.13800001 -0.169 0.63200003 3093324
0.142 -0.16700001 0.63000005 2567755
0.14750001 -0.16750002 0.63050008 2239823
0.15300001 -0.16800001 0.63050008 2635601
0.072000004 -0.163 0.63100004 16574184
0.13800001 -0.16500001 0.63300002 2829378
0.14 -0.162 0.63000005 3488082
0.17050001 -0.15700001 0.63200003 9737114
0.07 -0.15150002 0.634 16639720
0.14300001 -0.15100001 0.63000005 3028570
0.16700001 -0.15000001 0.63100004 2174545
0.07 -0.147 0.63300002 16770794
0.16800001 -0.148 0.634 2174801
0.069000006 -0.14300001 0.63150001 16770794
0.11700001 -0.141 0.634 1380899
0.164 -0.14400001 0.63100004 1845579
0.16500001 -0.142 0.63300002 2042699
0.069000006 -0.13750002 0.63000005 16705258
0.116 -0.1365 0.634 1315106
0.16500001 -0.13800001 0.634 2174286
0.13900001 -0.132 0.63000005 2896471
0.067000002 -0.126 0.63300002 16639978
0.16100001 -0.12800001 0.63000005 1713476
0.066 -0.123 0.63200003 16770794
0.16100001 -0.124 0.63250005 1450295
0.066 -0.119 0.63050008 16770794
0.15800001 -0.12 0.63100004 1580856
0.064000003 -0.11150001 0.63349998 16639465
0.12800001 -0.11400001 0.63100004 4145498
0.155 -0.115 0.63100004 2303557
0.064000003 -0.10700001 0.63100004 16508135
0.123 -0.10600001 0.63100004 3685205
0.15200001 -0.109 0.63000005 2172224
0.061000004 -0.104 0.63349998 16705514
0.149 -0.104 0.63000005 2171711
0.058500003 -0.096000001 0.63200003 16705771
0.061000004 -0.1 0.63100004 16574185
0.147 -0.096000001 0.634 2106683
0.056000002 -0.092000008 0.63300002 16639978
0.14250001 -0.092000008 0.63150001 1908790
0.052666668 -0.088000007 0.63300008 16574184
0.056000002 -0.089000002 0.63000005 16639978
0.13750002 -0.088000007 0.63200003 1974069
0.047333334 -0.082999997 0.63300008 16179172
0.051000003 -0.084000006 0.63100004 16508392
0.12800001 -0.080000006 0.63100004 2105654
0.133 -0.085000001 0.63000005 2105913
0.18800001 -0.082000002 0.634 3423833
0.19200002 -0.082666673 0.63333338 10000807
0.042333335 -0.07766667 0.63300008 15652831
0.046000004 -0.079000004 0.63100004 15981538
0.12 -0.075000003 0.634 1710894
0.18300001 -0.077 0.63200003 3293282
0.18766667 -0.077 0.63133335 5462383
0.19000001 -0.079000004 0.63200003 9343396
0.033 -0.072000004 0.63300002 15126747
0.036499999 -0.072500005 0.63200003 15258076
0.040000003 -0.074000001 0.63000005 15323867
0.17766668 -0.071666665 0.63133335 3556455
0.18200001 -0.073000006 0.63050008 3424354
0.1875 -0.073000006 0.63000005 6054776
0.018000001 -0.067000002 0.634 14930652
0.021500003 -0.066 0.63200003 15259103
0.026500002 -0.069000006 0.63300002 15259360
0.030000001 -0.069000006 0.63100004 14930652
0.17200001 -0.066333331 0.63233334 3885163
-0.0050000004 -0.061000004 0.63300002 14075346
-0.0020000001 -0.061000004 0.63000005 14009297
0.011500001 -0.064000003 0.63300002 14207189
0.015000001 -0.064000003 0.63100004 14536665
0.10600001 -0.063000001 0.63300002 1710632
0.17 -0.063000001 0.63100004 4015725
-0.065000005 -0.056000002 0.63200003 16244968
-0.057666671 -0.059000004 0.63300002 15325408
-0.028000001 -0.059000004 0.63300002 14470359
-0.025 -0.059000004 0.63100004 14470361
0.099000007 -0.057000004 0.63000005 2038572
0.10200001 -0.059000004 0.634 1841704
0.162 -0.055000003 0.63100004 4278375
0.16600001 -0.059 0.63250005 4016237
-0.071000002 -0.051000003 0.63300002 16640237
-0.068000004 -0.054000001 0.63100004 16442604
0.099000007 -0.053000003 0.63300002 2105136
0.15700001 -0.052000001 0.63300002 12004930
-0.076000005 -0.047000002 0.634 16772337
-0.073000006 -0.049000002 0.63300002 16706030
0.099000007 -0.049000002 0.63000005 2105653
0.10250001 -0.049000002 0.63150001 2105910
0.10733334 -0.047333341 0.63133341 2238011
0.112 -0.047000002 0.63200003 2369605
0.115 -0.047000002 0.634 2632778
0.14600001 -0.047000002 0.634 10952756
0.15200001 -0.050000001 0.63300002 11807812
-0.082000002 -0.041000001 0.63300002 10785948
-0.078000002 -0.044000003 0.63300002 15785441
0.11400001 -0.044000003 0.63100004 2567242
0.11766667 -0.042333335 0.63100004 2567240
0.12166667 -0.043333337 0.63300002 2698315
0.12650001 -0.042000003 0.63349998 2566983
0.13600001 -0.042000003 0.634 5449276
-0.086000003 -0.036000002 0.63200003 3747124
-0.081500009 -0.039000001 0.63050008 12298415
-0.022000002 -0.039000001 0.63100004 2037022
-0.015000001 -0.036000002 0.63000005 1840671
0.119 -0.037500001 0.63000005 2369087
0.12200001 -0.037500001 0.63100004 2369086
0.126 -0.037500001 0.63125002 2631231
0.13000001 -0.039000001 0.63200003 3089466
-0.085000001 -0.034000002 0.63000005 4339003
-0.035 -0.031000001 0.63100004 2166817
-0.010000001 -0.034000002 0.634 1774879
-0.0070000002 -0.031000001 0.634 1709086
0.119 -0.034000002 0.63000005 2303033
0.12200001 -0.034000002 0.63000005 2434359
-0.088000007 -0.026000001 0.63200003 3418159
-0.0070000002 -0.029000001 0.63200003 4200743
0.0515 -0.027249999 0.63050008 2038309
0.056500003 -0.0275 0.63075006 2169383
0.062000003 -0.029000001 0.63050008 1841444
0.065000005 -0.029000001 0.63000005 1841701
-0.087000005 -0.024 0.63200003 7234407
-0.082000002 -0.024 0.634 2826530
-0.077000007 -0.024 0.63300002 3289395
-0.073000006 -0.024 0.63000005 1776159
-0.097500004 -0.016000001 0.63349998 2038818
-0.068000004 -0.019000001 0.63100004 1644834
0.17300001 -0.016000001 0.634 1052703
0.178 -0.016000001 0.63200003 1052957
-0.14500001 -0.012500001 0.63100004 5199207
-0.14300001 -0.012500001 0.63349998 5132906
-0.119 -0.011000001 0.634 4144711
-0.112 -0.011000001 0.634 3420985
-0.10700001 -0.012500001 0.63150001 3091767
-0.096000001 -0.012500001 0.63200003 2035994
-0.065000005 -0.011000001 0.63300002 1710375
0.186 -0.011000001 0.63200003 1249564
-0.15200001 -0.0060000001 0.63150001 790044
-0.148 -0.0090000005 0.63200003 2763838
-0.11700001 -0.0090000005 0.634 3289141
-0.11400001 -0.0090000005 0.63100004 4144448
-0.096000001 -0.0060000001 0.63300002 3214873
-0.063000001 -0.0060000001 0.634 1183771
0.18800001 -0.0075000003 0.63050008 1249565
-0.177 -0.001 0.63200003 7372174
-0.1575 -0.0025000002 0.63150001 329228
-0.15400001 -0.0040000002 0.634 263181
-0.060000002 -0.003 0.634 1117978
-0.053000003 -0.001 0.634 1117978
-0.048750002 -0.0020000001 0.63225007 1183516
-0.042500004 -0.0020000001 0.63316673 1315102
-0.038000003 -0.0020000001 0.63300002 1380894
-0.033500001 -0.0019999999 0.63200003 1446687
-0.030000001 -0.0020000001 0.63000005 1578529
0.16600001 -0.0040000002 0.63000005 1315873
0.18200001 -0.0040000002 0.63300002 1315872
-0.18000001 0.0040000002 0.63300002 5132642
-0.16600001 0.0040000002 0.63000005 789778
-0.16249999 0.003 0.63200003 592141
-0.048 0.003 0.63349998 1709341
-0.043250002 0.0024999999 0.63250005 1709855
-0.037 0.0020000001 0.63100004 1710368
-0.035 0.0020000001 0.63100004 1907234
-0.18300001 0.0070000002 0.63300002 1711144
-0.17200001 0.0090000005 0.63200003 855314
-0.16800001 0.0070000002 0.63250005 789010
-0.087000005 0.0080000004 0.63200003 1444889
-0.055000003 0.0090000005 0.63100004 2037280
-0.050000001 0.0070000002 0.63100004 1971229
-0.17733334 0.012666668 0.63133341 920849
-0.15100001 0.014 0.63300002 4475741
-0.148 0.014 0.63100004 4738400
-0.14300001 0.012 0.634 7950178
-0.14 0.012 0.63200003 14369101
-0.076499999 0.012 0.63050008 1182488
-0.073000006 0.012 0.63100004 1380374
-0.067666672 0.011999999 0.63166672 2954267
-0.063000001 0.012 0.63000005 6035234
-0.18300001 0.017000001 0.63200003 1512731
-0.178 0.015000001 0.63300002 920593
-0.15100001 0.018000001 0.63200003 4344156
-0.147 0.018000001 0.63000005 4738657
-0.19100001 0.020000001 0.63200003 2434088
-0.18900001 0.020000001 0.63300002 2434346
-0.15100001 0.022000002 0.63300002 4869987
-0.148 0.022000002 0.63100004 4869987
-0.15100001 0.026000001 0.63349998 5001573
-0.147 0.026333334 0.63100004 4869215
-0.15100001 0.030000001 0.634 5658733
-0.14650001 0.031000003 0.63150001 5330024
-0.14675 0.036249999 0.63250005 5396073
-0.142 0.037 0.63000005 5526373
-0.14600001 0.041500002 0.63349998 5593709
-0.14250001 0.041000001 0.63050008 5592165
-0.14300001 0.046500001 0.63250005 6904687
-0.14300001 0.050000001 0.634 6642026
-0.14 0.056500003 0.63150001 12539491
-0.141 0.061000004 0.634 12869997
-0.13800001 0.071500003 0.63000005 14304338
-0.13800001 0.077000007 0.63100004 14173524
-0.13800001 0.082000002 0.63100004 14041680
-0.13800001 0.086000003 0.63000005 14238289
-0.142 0.10200001 0.634 13914203
-0.141 0.10600001 0.63250005 14110042
-0.141 0.111 0.63050008 13260128
-0.14500001 0.11800001 0.634 6777465
-0.141 0.115 0.63000005 12867934
-0.14500001 0.12200001 0.63300002 6513528
-0.14650001 0.12725 0.63300002 6185332
-0.14650001 0.13225001 0.63250005 5592935
-0.15100001 0.13700001 0.634 5988211
-0.14650001 0.13775001 0.63175005 5330020
-0.15100001 0.141 0.634 5528173
-0.14650001 0.14274999 0.63075006 5198179
-0.15200001 0.14666666 0.63333333 5593195
-0.14650001 0.147 0.63050008 5330023
-0.1525 0.1515 0.63300002 5265001
-0.148 0.15100001 0.63050008 5462639
-0.15250002 0.15675001 0.63200003 5725808
-0.148 0.155 0.63000005 6251898
-0.15300001 0.16166668 0.63133335 6120310
-0.15700001 0.16700001 0.634 5988468
-0.15400001 0.16750002 0.63150001 6317176
-0.15700001 0.171 0.634 6317432
-0.15400001 0.171 0.63100004 5857395
-0.15800001 0.17650001 0.634 6055286
-0.15400001 0.176 0.63150001 5660529
-0.15800001 0.1825 0.634 5792369
-0.15400001 0.18150002 0.63100004 5857649
-0.15800001 0.1875 0.634 5660526
-0.15400001 0.18650001 0.63000005 5397099
-0.155 0.192 0.63000005 5134951
-0.154 0.19800001 0.63066673 4738138
-0.156 0.20300001 0.63300002 4738909
-0.1525 0.20300001 0.63000005 4737629
-0.15300001 0.208 0.63100004 4936033
-0.15300001 0.21100001 0.63200003 5527909
-0.12800001 0.24900001 0.63100004 3087394
-0.134 0.25 0.63300002 8417914
0.11250001 -0.19600001 0.63900006 13551830
0.11800001 -0.19733335 0.63900006 13223121
0.12266668 -0.19866668 0.63833338 12170691
0.126 -0.1965 0.63800001 9472920
0.084000006 -0.19000001 0.63900006 14734300
0.096000001 -0.19000001 0.63900006 13880281
0.10200001 -0.191 0.63833338 14143453
0.10675 -0.19150001 0.63800007 14011867
0.112 -0.19150001 0.63750005 13420242
0.11750001 -0.19200002 0.63800001 13419985
0.12200001 -0.19250001 0.63900006 13157333
0.133 -0.19400001 0.63900006 9868691
0.13800001 -0.192 0.63900006 9210260
0.079000004 -0.18700001 0.63900006 15325919
0.082500003 -0.18700001 0.63800001 15983334
0.087500006 -0.18700001 0.63700002 14668505
0.09300001 -0.18700001 0.6365 14142679
0.097000003 -0.18700001 0.63600004 14077142
0.101 -0.18650001 0.63550007 14340571
0.10600001 -0.18700001 0.63500005 13682388
0.11150001 -0.18700001 0.63500005 13617110
0.11650001 -0.18700001 0.63550007 13090506
0.1225 -0.18800001 0.63850003 7368067
0.14300001 -0.1875 0.63850003 6712443
0.14600001 -0.186 0.63700002 8817562
0.077 -0.18300001 0.6376667 14536402
0.082500003 -0.18350002 0.6365 15193819
0.087500006 -0.18300001 0.63500005 14668250
0.11800001 -0.18400002 0.63500005 13683927
0.1225 -0.18375 0.63725007 6579064
0.13800001 -0.18100001 0.63900006 3159381
0.1415 -0.18300001 0.63850003 2766937
0.14650001 -0.18300001 0.63600004 4344675
0.073000006 -0.17700002 0.63800001 16311783
0.077000007 -0.17900001 0.63500005 15062489
0.12400001 -0.178 0.63750005 1184293
0.13600001 -0.177 0.63800001 2567495
0.14125 -0.1785 0.63700002 3554908
0.14625001 -0.1785 0.63575006 3424606
0.073000006 -0.17200001 0.63500005 16245220
0.12100001 -0.17400001 0.63700002 1380638
0.134 -0.17250001 0.63600004 3356237
0.13600001 -0.17400001 0.63500005 3619669
0.071000002 -0.16800001 0.63900006 16705770
0.13600001 -0.16800001 0.63500005 2895426
0.07 -0.16250001 0.6365 16705257
0.11800001 -0.16266668 0.63700002 10196901
0.14050001 -0.162 0.63700008 2764613
0.07 -0.1575 0.63550007 16639977
0.11800001 -0.15800001 0.63800001 5919587
0.11800001 -0.15350001 0.63800001 3814726
0.17200001 -0.15166669 0.63633341 6317946
0.11700001 -0.14750001 0.6365 1249312
0.16800001 -0.14500001 0.63600004 2175057
0.17266667 -0.148 0.63833338 5003120
0.17633332 -0.14666668 0.6376667 8684430
0.11700001 -0.14300001 0.63500005 1380899
0.16900001 -0.142 0.63850003 2240078
0.178 -0.1435 0.63750005 10197410
0.18000001 -0.141 0.63900006 10525088
0.067000002 -0.1365 0.63850003 16771051
0.16900001 -0.1365 0.63900006 2306130
0.067000002 -0.132 0.63600004 16771051
0.11700001 -0.132 0.6365 1315364
0.16675001 -0.132 0.63700008 2174543
0.185 -0.13000001 0.63800001 10066597
0.067000002 -0.12900001 0.63500005 16639978
0.13800001 -0.12800001 0.63600004 2699341
0.16500001 -0.12800001 0.63600004 1910849
0.18700001 -0.127 0.63600004 10131876
0.065000005 -0.12200001 0.63900006 16705001
0.13500001 -0.123 0.63600004 3028048
0.162 -0.12100001 0.63700002 1383727
0.16500001 -0.12400001 0.63800001 1778486
0.18800001 -0.125 0.63900006 10066597
0.19000001 -0.12200001 0.63800001 10197925
0.064000003 -0.11750001 0.63700002 16705001
0.15900001 -0.11800001 0.63500005 1252143
0.16000001 -0.116 0.63900006 1317678
0.19100001 -0.11850001 0.63800001 10066083
0.062000003 -0.11100001 0.63800001 16771051
0.156 -0.11300001 0.63600004 2171454
0.19600001 -0.112 0.63900006 12105662
0.059000004 -0.10600001 0.63900006 16705771
0.062000003 -0.108 0.63600004 16705258
0.15300001 -0.10700001 0.63600004 2040638
0.059000004 -0.10300001 0.63700002 16639978
0.15000001 -0.10200001 0.63500005 2171454
0.054000001 -0.096000001 0.63900006 16770794
0.057 -0.097666673 0.63566667 16574441
0.148 -0.095000006 0.63900006 2106681
0.19700001 -0.096000001 0.63800001 12236220
0.054000001 -0.093000002 0.63700002 16770794
0.14500001 -0.092000008 0.63700002 2040117
0.19500001 -0.093000002 0.63900006 10395306
0.049000002 -0.088000007 0.63800001 16507622
0.051000003 -0.090000004 0.63700002 16376805
0.13700001 -0.086000003 0.63600004 2039861
0.14300001 -0.089000002 0.63800001 1645360
0.18900001 -0.087000005 0.63800001 3357268
0.19275001 -0.088500008 0.6365 10000807
0.042500004 -0.081500009 0.63750005 15850209
0.046000004 -0.085000001 0.63800001 16310243
0.133 -0.082000002 0.63800001 1842482
0.18300001 -0.082000002 0.63800001 3425384
0.18633334 -0.083999999 0.63633341 3293022
0.19100001 -0.084000006 0.63500005 9737893
0.033 -0.075000003 0.63800001 15060696
0.037 -0.077000007 0.63750005 15455452
0.126 -0.078000002 0.63700002 1776688
0.1785 -0.076500006 0.63700008 3754091
0.18100001 -0.079000004 0.6365 3556456
0.027000001 -0.072000004 0.63800001 15258589
0.031000001 -0.072000004 0.63500005 15127261
0.036000002 -0.074000001 0.63500005 15192282
0.11800001 -0.073000006 0.63700002 1710377
0.17400001 -0.071000002 0.63700002 3885163
0.177 -0.074000001 0.63500005 3622765
0.003 -0.065000005 0.63900006 14272467
0.013 -0.067000002 0.63800001 14667738
0.0165 -0.068499997 0.63750005 14930651
0.022000002 -0.069000006 0.6365 15324896
0.11300001 -0.068000004 0.63900006 1579305
0.116 -0.07 0.63800001 1776170
0.17200001 -0.069000006 0.63800001 4016749
-0.010000001 -0.062000003 0.63700002 14207189
-0.0070000002 -0.062000003 0.63500005 14075347
0.0065000001 -0.064000003 0.63700002 14141395
0.16750002 -0.062000003 0.63700002 3884394
-0.071000002 -0.055000003 0.63900006 16705518
-0.067500003 -0.058500003 0.63850003 16113637
-0.063000001 -0.059000004 0.63600004 15851236
-0.052000001 -0.059000004 0.63550007 14667737
-0.048 -0.059000004 0.63800001 14404565
-0.033 -0.059000004 0.63900006 14207444
-0.030000001 -0.059000004 0.63600004 14272980
0.10300001 -0.056000002 0.63900006 1842733
0.16250001 -0.056500003 0.63850003 4145245
-0.074000001 -0.052000001 0.63900006 16639724
0.10200001 -0.052000001 0.63500005 2040115
0.1065 -0.052000001 0.63750005 2040116
-0.079000004 -0.047000002 0.63800001 15193306
0.11150001 -0.049000002 0.63550007 2238268
0.11700001 -0.048500001 0.6365 2501704
0.12200001 -0.047000002 0.63750005 2568017
-0.087000005 -0.042000003 0.63800001 3748666
-0.082500003 -0.044000003 0.63700002 8088947
0.1275 -0.044500001 0.6365 2699596
0.132 -0.043000001 0.63633341 2763849
0.14050001 -0.045000002 0.63700008 8136765
-0.087500006 -0.038000003 0.63700008 2431523
-0.089000002 -0.032500003 0.63750005 3681588
-0.092000008 -0.026000001 0.63900006 2959406
-0.089000002 -0.029000001 0.63500005 3288112
-0.028000001 -0.029000001 0.63800001 7415090
-0.011 -0.029000001 0.63750005 4725033
-0.091000006 -0.022500001 0.63600004 3024687
-0.088 -0.021000002 0.63800001 3550256
-0.071000002 -0.021000002 0.63500005 1512987
-0.14600001 -0.016000001 0.63600004 10856883
-0.14250001 -0.016000001 0.63750005 4540764
-0.13750002 -0.016000001 0.63800001 5593718
-0.13150001 -0.016000001 0.6365 5265011
-0.12800001 -0.016000001 0.63600004 4804459
-0.1235 -0.016000001 0.63600004 4343393
-0.119 -0.016000001 0.63850003 4671836
-0.10200001 -0.016000001 0.63600004 2500141
-0.068000004 -0.016000001 0.63800001 3289149
0.17600001 -0.016000001 0.63500005 1052959
-0.141 -0.012500001 0.63600004 4211546
-0.13700001 -0.014 0.63700002 4869993
-0.132 -0.014 0.63800001 3817302
-0.12800001 -0.014 0.63700002 2040888
-0.1235 -0.012500001 0.6365 4079180
-0.11800001 -0.013000001 0.63600004 4407885
-0.11275001 -0.013250001 0.63750005 3420990
0.16800001 -0.011000001 0.63700002 1118491
0.18100001 -0.014 0.63500005 1118493
0.185 -0.011000001 0.63700002 1249566
-0.14750001 -0.0075000003 0.63600004 658201
-0.14400001 -0.0090000005 0.63800001 525843
-0.123 -0.0090000005 0.63800001 4407880
-0.11850001 -0.0075000003 0.63600004 3289142
-0.096000001 -0.0090000005 0.63600004 3413017
-0.066 -0.0090000005 0.63900006 1512225
0.18633334 -0.0070000007 0.63633341 1249565
-0.15700001 -0.001 0.63500005 526605
-0.15200001 -0.0040000002 0.63800001 197132
-0.11700001 -0.003 0.63600004 2960174
-0.094000004 -0.001 0.63800001 1511707
-0.056500003 -0.001 0.63600004 1381405
0.17250001 -0.0040000002 0.63850003 1381152
0.178 -0.0040000002 0.63700002 1249823
-0.16000001 0.0040000002 0.63800001 460299
-0.15850002 0.0020000001 0.63700008 460299
-0.056000002 0.0020000001 0.63900006 1578781
-0.053000003 0.003 0.63750005 1709342
-0.050000001 0.003 0.63600004 1709085
-0.19000001 0.0070000002 0.63800001 7501182
-0.169 0.0090000005 0.63750005 657679
-0.164 0.0070000002 0.63700002 1315867
-0.13500001 0.0090000005 0.63500005 12921145
-0.082500003 0.0090000005 0.63700002 1313557
-0.061000004 0.0090000005 0.63900006 1315098
-0.057000004 0.0080000004 0.63750005 1971743
-0.053000003 0.0070000002 0.63600004 1972256
-0.17300001 0.012 0.63600004 920593
-0.15366668 0.012666668 0.63733339 4344156
-0.14750001 0.012 0.6365 5133158
-0.17750001 0.016000001 0.63700002 789006
-0.15800001 0.016000001 0.63900006 3818068
-0.15400001 0.017000001 0.63500005 3883863
-0.19400001 0.022500001 0.63800001 1972505
-0.186 0.020000001 0.63500005 1644316
-0.18400002 0.020000001 0.63700002 1183510
-0.15800001 0.021000002 0.63900006 4081238
-0.15400001 0.021000002 0.63500005 4607071
-0.15800001 0.026500002 0.63900006 4936035
-0.15400001 0.026000001 0.63600004 5133417
-0.15366668 0.031666666 0.63666672 5659759
-0.15350001 0.036499999 0.63750005 5594224
-0.15200001 0.041500002 0.63850003 5724782
-0.149 0.041500002 0.63550007 5857137
-0.15000001 0.047000002 0.63850003 5659502
-0.14600001 0.046500001 0.63550007 6054004
-0.147 0.052000001 0.63800001 5987696
-0.14400001 0.053000003 0.63500005 6444647
-0.14500001 0.059000004 0.63900006 6117740
-0.14400001 0.056000002 0.63700002 6641771
-0.141 0.063000001 0.63600004 12409447
-0.142 0.067500003 0.63850003 12476780
-0.142 0.091000006 0.63850003 13193567
-0.142 0.096000001 0.6365 13194337
-0.14500001 0.10300001 0.63900006 6842750
-0.142 0.1 0.63500005 13979996
-0.14500001 0.10700001 0.63750005 6646140
-0.14650001 0.112 0.63700002 6383224
-0.15100001 0.11750001 0.63850003 6383736
-0.147 0.11700001 0.63599998 6448245
-0.15100001 0.1225 0.63700002 6252409
-0.148 0.1225 0.63550007 6645626
-0.1525 0.127 0.63750005 6447992
-0.16500001 0.133 0.63800001 6646399
-0.1525 0.132 0.6365 6317690
-0.16325001 0.13750002 0.63850003 6383481
-0.15700001 0.1365 0.63850003 6449533
-0.15400001 0.13600001 0.6365 6186105
-0.16600001 0.141 0.63900006 6120563
-0.16000001 0.14250001 0.63900006 6318714
-0.15700001 0.142 0.63750005 6384507
-0.15400001 0.1415 0.63550007 5792114
-0.16000001 0.14750001 0.63850003 6515324
-0.15700001 0.14750001 0.63700002 6054773
-0.15400001 0.14500001 0.63500005 5660016
-0.16100001 0.15200001 0.63900006 6383739
-0.15700001 0.1525 0.63600004 6120567
-0.16100001 0.156 0.63850003 6251895
-0.15700001 0.1575 0.63600004 6186103
-0.16100001 0.16150001 0.63800001 6120054
-0.1575 0.163 0.63550007 6185847
-0.16100001 0.1665 0.63800001 6054261
-0.16100001 0.17250001 0.63750005 6185846
-0.162 0.177 0.63900006 5989750
-0.15900001 0.192 0.63600004 5528425
-0.12400001 0.25400001 0.63700002 2762800
-0.12100001 0.257 0.63700002 7641009
-0.12200001 0.26700002 0.63900006 8166327
-0.12200001 0.27000001 0.63800001 7902901
-0.12200001 0.27800003 0.63700002 7048622
0.082000002 -0.19700001 0.64400005 14012122
0.086500004 -0.19700001 0.64400005 13815001
0.093000002 -0.19700001 0.64400005 14011864
0.097000003 -0.19700001 0.64300001 14143966
0.10225 -0.19850001 0.64250004 14077660
0.1075 -0.19825 0.64075005 14077917
0.11250001 -0.19950001 0.64000005 13420244
0.11700001 -0.2 0.64000005 13222864
0.078333341 -0.19166668 0.64233333 14471644
0.082000002 -0.192 0.64100003 14340315
0.086333334 -0.19233334 0.64100003 13748949
0.091250002 -0.192 0.64100003 13880023
0.096500009 -0.19400001 0.6415 14077659
0.1 -0.193 0.64000005 14143452
0.126 -0.19275001 0.64000005 3487054
0.13150001 -0.19225 0.64125001 4870251
0.13633335 -0.19066668 0.64100003 4212322
0.141 -0.19000001 0.64100003 4608359
0.076000005 -0.18800001 0.64100003 14799576
0.127 -0.1875 0.64000005 2633036
0.131 -0.18766667 0.64200002 3159637
0.13700001 -0.18700001 0.6415 2502477
0.141 -0.18700001 0.64000005 3555677
0.074000001 -0.18350001 0.64200002 15127511
0.127 -0.18300001 0.64000005 2501703
0.13150001 -0.1825 0.6415 2961999
0.13633333 -0.18300001 0.64100003 2830671
0.071000002 -0.177 0.64300001 16640490
0.12400001 -0.17500001 0.64100003 1052190
0.127 -0.17800002 0.6413334 1777202
0.13100001 -0.17675 0.64100003 2764099
0.071000002 -0.17250001 0.64100003 16574184
0.12100001 -0.17200001 0.64100003 1117464
0.133 -0.17300001 0.64300001 3092548
0.13600001 -0.16850001 0.64000005 1974323
0.14300001 -0.16000001 0.64300001 3619927
0.068000004 -0.15800001 0.64400005 16771049
0.068000004 -0.15350001 0.64300001 16639720
0.068000004 -0.148 0.64200002 16705001
0.068000004 -0.14250001 0.64050007 16705001
0.17200001 -0.14250001 0.64050007 2372692
0.17566667 -0.142 0.64033341 3951205
0.142 -0.13800001 0.64200002 3224922
0.17200001 -0.13700001 0.64100003 2306388
0.17625001 -0.13750002 0.64100003 2635352
0.18100001 -0.13666667 0.64000005 9343136
0.065000005 -0.13100001 0.64300001 16442599
0.17233334 -0.131 0.64033335 2371666
0.17633335 -0.13200001 0.64100003 2570074
0.18150002 -0.13150001 0.64025003 5791864
0.065000005 -0.12800001 0.64200002 16442599
0.11750001 -0.1275 0.64200002 1249828
0.16900001 -0.127 0.64000005 2042181
0.17250001 -0.1275 0.64050007 2371917
0.177 -0.12800001 0.64100003 2767194
0.18100001 -0.12800001 0.64050007 2898269
0.185 -0.12800001 0.64000005 9936301
0.065000005 -0.125 0.64000005 16639208
0.16800003 -0.123 0.64133334 1909818
0.17300001 -0.1235 0.64125001 2305349
0.177 -0.1235 0.64100003 2503247
0.18125002 -0.12375 0.64075005 2767196
0.186 -0.12366667 0.64033341 5661046
0.062000003 -0.11850001 0.64300001 16705001
0.16350001 -0.118 0.64200008 1317678
0.16750002 -0.12 0.64350003 1581105
0.17200001 -0.12 0.64300001 2041401
0.17625 -0.11850001 0.64324999 2502469
0.1815 -0.11850001 0.64250004 2766675
0.18650001 -0.11850001 0.64100003 3425375
0.19000001 -0.11700001 0.64000005 9935789
0.060666669 -0.11366668 0.64200002 16639721
0.12800001 -0.11300001 0.64400005 4408157
0.15700001 -0.11100001 0.64100003 1843257
0.16100001 -0.11400001 0.64300001 1449010
0.18300001 -0.115 0.64400005 2897228
0.18766667 -0.114 0.64300001 3029587
0.19260001 -0.1128 0.64200008 7304839
0.19600001 -0.11000001 0.64200002 11842237
0.058000006 -0.10800001 0.6415 16639722
0.155 -0.10600001 0.64100003 2040636
0.19700001 -0.10700001 0.64300001 11909311
0.054000001 -0.10200001 0.64400005 16705001
0.057000004 -0.10250001 0.64050007 16639978
0.118 -0.10200001 0.64000005 2763844
0.197 -0.10275 0.6415 11908539
0.053000003 -0.097500004 0.64250004 16705001
0.15100001 -0.1 0.64000005 1975608
0.193 -0.096000001 0.64300001 7896984
0.19600001 -0.097500004 0.6415 10659243
0.048333336 -0.092000008 0.64300007 16573414
0.051000003 -0.093000002 0.64000005 16705001
0.149 -0.093000002 0.64400005 2105913
0.18800001 -0.091000006 0.64400005 3556709
0.19133335 -0.092333339 0.64166671 5397622
0.043000001 -0.087000005 0.64300007 16179170
0.046000004 -0.088000007 0.64100003 16376036
0.141 -0.087000005 0.64100003 1776946
0.14600001 -0.090000004 0.64300001 1908532
0.186 -0.088000007 0.64250004 3294054
0.038000003 -0.081000008 0.64200002 15587294
0.041000001 -0.083000004 0.64100003 15916001
0.13900001 -0.084000006 0.64400005 1711408
0.17900001 -0.080000006 0.64300001 3819626
0.18300001 -0.083499998 0.6415 3556968
0.027000001 -0.075000003 0.64200002 15389659
0.03166667 -0.077 0.64166671 15258073
0.125 -0.076000005 0.64200002 1579307
0.13000001 -0.079000004 0.64400005 1447722
0.018000001 -0.073000006 0.64300001 15389920
0.022000002 -0.072500005 0.6415 15455711
0.17300001 -0.072000004 0.64300001 3687784
0.17600001 -0.074000001 0.64100003 3753577
-0.0020000001 -0.065000005 0.64300001 14404053
0 -0.065000005 0.64100003 14272467
0.0065000001 -0.067500003 0.64300001 14536152
0.011000001 -0.068999998 0.64200002 14667482
0.016000001 -0.07 0.64000005 14930652
0.11100001 -0.065000005 0.64200002 1513768
0.17 -0.066 0.64100003 3687784
-0.021500003 -0.062000003 0.64350003 14010324
-0.018000001 -0.062000003 0.64200002 14075603
-0.014 -0.062000003 0.64050007 14141652
0.109 -0.063000001 0.64400005 1841961
0.16800001 -0.064000003 0.64300001 4015978
-0.046000004 -0.060000002 0.64000005 14272980
-0.042000003 -0.060000002 0.64200002 14338773
-0.037 -0.060000002 0.6415 14207700
0.10675 -0.057000004 0.64300001 1908269
0.16000001 -0.056000002 0.64400005 4732753
0.11250001 -0.052000001 0.64050007 2040372
0.11700001 -0.053000003 0.64300001 2172218
0.156 -0.053000003 0.64000005 11742788
-0.082000002 -0.047000002 0.64100003 8745593
-0.077000007 -0.050000001 0.64000005 16771823
0.119 -0.050000001 0.64000005 2370630
0.1225 -0.050000001 0.64200002 2568271
0.126 -0.047000002 0.64000005 2699604
0.13150001 -0.048 0.64300001 2831190
0.14500001 -0.048 0.64100003 9840706
0.15100001 -0.050000001 0.64000005 10559538
-0.092000008 -0.040000003 0.64300001 2630957
-0.088500008 -0.043500002 0.64350003 3419958
0.13600001 -0.045000002 0.64100003 3026770
-0.092000008 -0.037 0.64200002 2762798
-0.089000002 -0.039000001 0.64000005 3419704
-0.041000001 -0.038000003 0.64250004 1642779
-0.025 -0.039000001 0.64000005 1905952
-0.018000001 -0.037 0.64100003 1840161
-0.095000006 -0.033 0.64400005 4012610
-0.092000008 -0.033 0.6415 4209989
-0.011500001 -0.032500003 0.64100003 1774623
-0.092000008 -0.029000001 0.64200002 3551544
-0.015000001 -0.029000001 0.64200002 5446955
-0.095000006 -0.021000002 0.64100003 2762024
-0.083000004 -0.021000002 0.64250004 1709333
-0.074000001 -0.021000002 0.64300001 1447194
-0.13500001 -0.019000001 0.64400005 5593202
-0.132 -0.019000001 0.64200002 5067631
-0.1275 -0.019000001 0.64050007 4542060
-0.12200001 -0.019000001 0.64050007 3290961
-0.11700001 -0.019000001 0.64300001 5132645
-0.11300001 -0.016000001 0.64166671 4342616
-0.108 -0.016000001 0.64400005 4670810
-0.105 -0.016000001 0.64100003 2434353
-0.097333334 -0.018000001 0.64233333 3156528
-0.09300001 -0.019000001 0.64050007 4011320
-0.090000004 -0.019000001 0.64400005 1906716
-0.13800001 -0.011000001 0.64100003 1052702
-0.133 -0.011000001 0.64200002 855319
-0.12900001 -0.011000001 0.64000005 855320
-0.069000006 -0.014 0.64300001 1907243
0.17200001 -0.014 0.64100003 1250079
0.18150002 -0.012500001 0.6415 1118237
-0.147 -0.0060000001 0.64000005 460562
-0.142 -0.0090000005 0.64200002 394513
0.16900001 -0.0075000003 0.64050007 1315359
0.18350002 -0.0075000003 0.64250004 1117979
0.186 -0.0090000005 0.64000005 1183771
-0.1525 -0.0025000002 0.6415 460300
-0.0625 -0.0025000002 0.64200002 1512991
-0.15800001 0.0040000002 0.64200002 460300
-0.092000008 0.0020000001 0.64100003 1248022
-0.089000002 0.0040000002 0.64100003 1247254
-0.058000002 0.0033333332 0.64233333 1709342
-0.16700001 0.0090000005 0.64200002 1184022
-0.16233334 0.0083333338 0.6426667 2961209
-0.15800001 0.0083333338 0.64400005 3883085
-0.14 0.0090000005 0.64200002 14040908
-0.087000005 0.0070000002 0.64100003 1314074
-0.085000001 0.0070000002 0.64400005 1314330
-0.077500001 0.0090000005 0.64050007 985621
-0.072999999 0.0090000005 0.64250004 1312790
-0.067500003 0.0090000005 0.64300001 1182486
-0.064000003 0.0090000005 0.64100003 1445401
-0.059000004 0.0070000002 0.64200002 2367270
-0.17200001 0.012 0.64200002 920590
-0.15800001 0.012 0.64200002 3817552
-0.17650001 0.016000001 0.64250004 920593
-0.19100001 0.023000002 0.64100003 1248788
-0.18900001 0.023000002 0.64300001 1315351
-0.18300001 0.020000001 0.64100003 1052437
-0.16150001 0.021000002 0.64350003 4014677
-0.19800001 0.025 0.64400005 1181444
-0.16100001 0.026500002 0.64200002 5067366
-0.16100001 0.031500001 0.64250004 5593967
-0.15800001 0.031500001 0.64000005 5462123
-0.16150001 0.037 0.64350003 5660018
-0.15850002 0.036499999 0.6415 5527660
-0.1575 0.042000003 0.64250004 5264744
-0.156 0.046000004 0.64400005 5133672
-0.15300001 0.047000002 0.6415 5857138
-0.15166667 0.052000001 0.64200002 5659502
-0.15100001 0.056000002 0.64400005 5790830
-0.148 0.057500005 0.6415 5724781
-0.14600001 0.062333334 0.64166665 5855596
-0.14600001 0.068000004 0.64350003 5724009
-0.142 0.072999999 0.64000005 13000040
-0.142 0.077000007 0.64000005 14047077
-0.14300001 0.081 0.64100003 14111070
-0.14300001 0.086000003 0.64000005 14175836
-0.14600001 0.092000008 0.64350003 7302526
-0.14700001 0.097666673 0.64233333 7171199
-0.15200001 0.104 0.64400005 6318454
-0.148 0.102 0.64166665 6711931
-0.15300001 0.10833334 0.64300007 6580860
-0.149 0.1075 0.64050007 6579833
-0.15325001 0.11300001 0.64150006 6448763
-0.15800001 0.11650001 0.64400005 6975106
-0.15400001 0.118 0.64050007 6448761
-0.16600001 0.1215 0.64350003 6843777
-0.16200002 0.122 0.64400005 6646654
-0.15800001 0.1215 0.64250004 6449274
-0.15400001 0.12200001 0.64000005 6449019
-0.16600001 0.126 0.64200002 6778243
-0.16240001 0.127 0.64160001 6646654
-0.1575 0.12650001 0.6415 6645884
-0.16600001 0.13100001 0.64000005 6777984
-0.16150001 0.132 0.64050007 6712449
-0.15700001 0.13150001 0.64000005 6777729
-0.16150001 0.13600001 0.64000005 6383484
-0.16600001 0.14400001 0.64100003 6185585
-0.163 0.14250001 0.64000005 6253178
-0.16700001 0.148 0.64300001 6645624
-0.164 0.147 0.64100003 6450044
-0.16700001 0.15000001 0.64400005 6382196
-0.164 0.15100001 0.64100003 6252152
-0.164 0.15650001 0.64200002 6251895
-0.16500001 0.16100001 0.64400005 6448760
-0.162 0.18000001 0.64100003 5661298
-0.15900001 0.20900001 0.64400005 5001826
-0.12200001 0.26200002 0.64100003 7903155
-0.12200001 0.26500002 0.64000005 7969463
-0.123 0.27650002 0.64250004 7312302
0.092500001 -0.20100001 0.64700001 13551829
0.097500004 -0.20100001 0.64700001 14012125
0.077000007 -0.19800001 0.648 13880280
0.080000006 -0.19700001 0.64500004 13880795
0.088000007 -0.2 0.64500004 12959433
0.090000004 -0.19700001 0.64500004 13880540
0.076000005 -0.19350001 0.64649999 14602972
0.074000001 -0.18900001 0.64500004 14141390
0.072000004 -0.18400002 0.648 16508905
0.071000002 -0.18000001 0.64500004 16706283
0.12200001 -0.171 0.64600003 1184031
0.125 -0.17400001 0.64700001 986907
0.13250001 -0.17300001 0.64850003 1645355
0.069000006 -0.16850001 0.64750004 16639977
0.13750002 -0.16800001 0.64850003 1118755
0.068500005 -0.16250001 0.64550006 16639720
0.142 -0.164 0.648 3224647
0.066 -0.14300001 0.64900005 16639208
0.065500006 -0.13850001 0.64700001 16573415
0.065000005 -0.134 0.64500004 16573415
0.063000001 -0.1275 0.648 16573672
0.061500002 -0.12200001 0.64700001 16705258
0.11800001 -0.12400001 0.64600003 1381414
0.058000002 -0.116 0.64900005 16770794
0.060000002 -0.11800001 0.64600003 16770794
0.16700001 -0.11700001 0.64600003 1449264
0.171 -0.11750001 0.64550006 1777972
0.056333333 -0.111 0.64700007 16639721
0.162 -0.112 0.64700001 1580339
0.1665 -0.115 0.64850003 1448752
0.1715 -0.115 0.64750004 1711923
0.17700002 -0.11400001 0.64725006 1975608
0.18240002 -0.11220001 0.64700001 2041659
0.18733335 -0.11066667 0.64599997 2436675
0.192 -0.11000001 0.64500004 3291730
0.055000003 -0.108 0.648 16705771
0.12400001 -0.10600001 0.648 4014426
0.15900001 -0.109 0.64600003 1580087
0.18800001 -0.108 0.64750004 2041917
0.193 -0.10700001 0.64550006 2699850
0.052000001 -0.10200001 0.648 16770794
0.055000003 -0.105 0.64600003 16771051
0.156 -0.104 0.64600003 1843513
0.19199999 -0.10350001 0.64683336 3160661
0.049000002 -0.097000003 0.64700001 16705001
0.050999999 -0.0995 0.64700007 16639208
0.15300001 -0.098000005 0.64500004 1975095
0.18900001 -0.097000003 0.648 3360100
0.19175002 -0.098750003 0.64675003 3884902
0.044000003 -0.092000008 0.648 16507621
0.047000002 -0.094000004 0.64700001 16507622
0.15100001 -0.091000006 0.64900005 1974327
0.18733335 -0.093000002 0.64733338 3359844
0.039000001 -0.086000003 0.64700001 15850463
0.042000003 -0.089000002 0.64700001 16244450
0.14400001 -0.087000005 0.64500004 1645615
0.148 -0.088000007 0.64900005 1842994
0.18300001 -0.087500006 0.64700001 3359585
0.029000001 -0.081 0.64900005 15324379
0.033000004 -0.082000002 0.64700007 15521757
0.036000002 -0.084000006 0.64600003 15653342
0.13600001 -0.082000002 0.64700001 1579822
0.142 -0.085000001 0.648 1317164
0.178 -0.081 0.64900005 3556195
0.18000001 -0.083000004 0.64700001 3490917
0.018000001 -0.076000005 0.648 15324383
0.022666669 -0.077 0.64666671 15390172
0.0275 -0.078500003 0.64700001 15389916
0.17400001 -0.075000003 0.64700001 3818852
0.177 -0.077000007 0.64500004 3688040
0.003 -0.071000002 0.64900005 14667737
0.0050000004 -0.071000002 0.648 14865116
0.012 -0.073000006 0.64750004 15258334
0.016000001 -0.073000006 0.64500004 15389920
0.123 -0.074000001 0.64700001 1644584
0.17200001 -0.072000004 0.64900005 3555427
-0.011500001 -0.065500006 0.64850003 14470359
-0.0065000001 -0.065000005 0.64550006 14470359
-0.0020000001 -0.068000004 0.64900005 14733018
0.0015 -0.068000004 0.64600003 14601432
0.0080000004 -0.07 0.64600003 14930652
0.16900001 -0.067000002 0.64700001 3752548
0.171 -0.069000006 0.64500004 3687783
-0.067000002 -0.063000001 0.64900005 15259613
-0.063000001 -0.063000001 0.64649999 15062494
-0.058000006 -0.063000001 0.64700001 14601944
-0.027000001 -0.063000001 0.64700001 14075601
0.11000001 -0.061000004 0.64900005 1776938
0.16600001 -0.0625 0.64700007 3489886
-0.075000003 -0.055000003 0.64600003 16573931
-0.072000004 -0.058000002 0.64500004 16442858
-0.069000006 -0.060000002 0.64500004 16113893
0.111 -0.056500003 0.64750004 1842733
0.11650001 -0.056000002 0.64850003 1974322
0.15800001 -0.056000002 0.64900005 4733523
0.163 -0.059000004 0.64600003 3423580
-0.077000007 -0.053000003 0.64600003 16639724
0.1215 -0.053000003 0.64600003 2304325
0.126 -0.053000003 0.64900005 2370380
0.13100001 -0.051000003 0.64700001 2634579
0.149 -0.051000003 0.64600003 8137029
0.155 -0.053000003 0.64600003 9382209
-0.082500003 -0.048500001 0.64550006 9206657
0.12800001 -0.050000001 0.64500004 2765651
0.13750002 -0.048 0.64649999 3028312
0.14250001 -0.048 0.64600003 4994390
-0.097500004 -0.040000003 0.648 3486265
-0.092000008 -0.043500002 0.64700001 3222324
-0.028000001 -0.040000003 0.648 1905695
-0.10250001 -0.037 0.64900005 3223349
-0.096500009 -0.037 0.64649999 2828335
-0.10600001 -0.033500001 0.64900005 2894129
-0.10250001 -0.033500001 0.64775002 3683905
-0.098000005 -0.033500001 0.64649999 3157558
-0.013 -0.032000002 0.64500004 1775133
-0.104 -0.030000001 0.64900005 6776438
-0.096000001 -0.029000001 0.64700001 3222837
-0.022666669 -0.029000001 0.64766669 6889779
-0.018000001 -0.029000001 0.64500004 5972272
-0.13000001 -0.022000002 0.64900005 4804203
-0.127 -0.022000002 0.648 3949405
-0.1235 -0.022000002 0.64700001 4409956
-0.118 -0.022000002 0.64750004 5461354
-0.11400001 -0.022000002 0.64900005 5658729
-0.096500009 -0.023000002 0.64649999 2630438
-0.080000006 -0.022000002 0.64500004 3683897
-0.077000007 -0.022000002 0.64500004 2236453
-0.14600001 -0.019000001 0.64700001 9673125
-0.142 -0.019000001 0.64700001 3751759
-0.13800001 -0.019000001 0.64600003 5001571
-0.11250001 -0.019000001 0.64649999 4869215
-0.104 -0.019000001 0.64900005 3420472
-0.093000002 -0.016000001 0.64600003 1773590
-0.089000002 -0.017500002 0.64700001 1182992
-0.085000001 -0.019000001 0.648 1051407
-0.072000004 -0.019000001 0.64600003 1184025
-0.095000006 -0.012500001 0.64600003 2231317
-0.093000002 -0.014 0.64900005 1445395
-0.069000006 -0.011000001 0.64700001 1644325
0.17400001 -0.012 0.648 1249566
0.17750001 -0.014 0.64500004 1118749
0.18200001 -0.012 0.64700001 1184031
-0.14600001 -0.0060000001 0.64500004 525841
-0.14 -0.0090000005 0.64600003 591891
-0.127 -0.0090000005 0.64500004 4473674
-0.096000001 -0.0075000003 0.64900005 2755607
-0.067000002 -0.0060000001 0.64500004 1249564
0.17400001 -0.0060000001 0.648 1249566
0.177 -0.0060000001 0.64900005 1249566
0.18100001 -0.0070000007 0.64700001 1249566
-0.15400001 -0.001 0.64500004 526093
-0.095000006 -0.0040000002 0.64500004 1182229
-0.093000002 -0.001 0.64700001 1116437
-0.067000002 -0.0040000002 0.64900005 1841955
-0.064000003 -0.001 0.64700001 1841955
-0.15700001 0.003 0.64750004 460298
-0.088333338 0.0026666669 0.64700007 1444633
-0.082666673 0.0040000002 0.648 1379096
-0.077000007 0.0040000002 0.64900005 1248022
-0.067000002 0.0040000002 0.64900005 1709086
-0.062750004 0.003 0.64674997 1644061
-0.15700001 0.0070000002 0.648 4540501
-0.1525 0.0090000005 0.64550006 4344153
-0.14750001 0.0090000005 0.64600003 7293273
-0.14300001 0.0090000005 0.64500004 14434894
-0.081 0.0070000002 0.64550006 1182487
-0.076000005 0.0070000002 0.64649999 1116694
-0.072000004 0.0070000002 0.648 1182742
-0.068000004 0.0070000002 0.648 1379609
-0.0625 0.0070000002 0.64600003 1906464
-0.171 0.012 0.64700001 789007
-0.16600001 0.012 0.64900005 3158074
-0.162 0.012 0.64500004 3356997
-0.162 0.016000001 0.64500004 3356744
-0.18700001 0.023000002 0.64500004 1381655
-0.18100001 0.020000001 0.64600003 920851
-0.16500001 0.023000002 0.648 4474199
-0.19600001 0.026000001 0.64900005 1248786
-0.16800001 0.028000001 0.64900005 6382447
-0.16500001 0.026500002 0.64500004 5592938
-0.16800001 0.032000002 0.64900005 7434876
-0.16500001 0.031500001 0.64500004 6317688
-0.16850001 0.037500001 0.64900005 7566209
-0.16500001 0.037 0.64600003 6120053
-0.16600001 0.044000003 0.648 5198951
-0.163 0.042000007 0.64600009 5396330
-0.16150001 0.047499999 0.64750004 5265000
-0.15700001 0.049000002 0.64500004 5264744
-0.16000001 0.052000001 0.64900005 5592940
-0.15700001 0.052500002 0.64649999 5264745
-0.15400001 0.054000001 0.64500004 5659502
-0.15800001 0.057000004 0.64900005 5264744
-0.15333335 0.058333337 0.6463334 5725038
-0.15350001 0.062000003 0.64750004 5264487
-0.149 0.064000003 0.64500004 5461349
-0.15200001 0.066 0.64750004 5724267
-0.149 0.067000002 0.64500004 5460837
-0.15200001 0.07 0.64900005 5790061
-0.148 0.071333341 0.64599997 5987182
-0.15000001 0.076499999 0.648 5987695
-0.14600001 0.076000005 0.64500004 6053230
-0.15000001 0.082000002 0.648 6514039
-0.14650001 0.081500009 0.64550006 6382196
-0.17200001 0.089000002 0.648 7829387
-0.15100001 0.087666668 0.648 6777210
-0.14600001 0.086500004 0.64500004 6974590
-0.15150002 0.092500001 0.64750004 6843774
-0.156 0.098000005 0.64850003 6843006
-0.1525 0.097500004 0.64649999 6842491
-0.149 0.096000001 0.64500004 6383480
-0.15900001 0.101 0.64900005 6974848
-0.154 0.10233334 0.64600009 6974849
-0.16200002 0.107 0.64866668 7040900
-0.15800001 0.10600001 0.64700001 6514555
-0.155 0.10700001 0.64500004 7104639
-0.16700001 0.11300001 0.64900005 7041158
-0.16250001 0.11150001 0.64775002 7040900
-0.15800001 0.111 0.64550006 6711678
-0.168 0.11666667 0.64700001 6909569
-0.16250001 0.11675 0.64600003 6843777
-0.164 0.12100001 0.64500004 6975875
-0.16800001 0.15400001 0.64700001 6514036
-0.16600001 0.16500001 0.64600003 6514296
-0.163 0.18400002 0.64500004 6054771
0.075000003 -0.19750002 0.65000004 14077400
0.072000004 -0.19100001 0.65200001 14930649
0.072000004 -0.18700001 0.65000004 15851489
0.069000006 -0.177 0.65200001 16574184
0.07 -0.18000001 0.65400004 16705770
0.12900001 -0.17500001 0.65100002 1447974
0.069000006 -0.17300001 0.65000004 16508391
0.123 -0.17 0.65200001 1249826
0.066 -0.15700001 0.65300006 16376805
0.14500001 -0.15900001 0.65000004 3291478
0.066 -0.153 0.65200007 16507621
0.066 -0.14750001 0.65050006 16573414
0.14400001 -0.142 0.65000004 4409447
0.063500002 -0.1365 0.653 16507622
0.142 -0.13500001 0.65400004 2764884
0.062000003 -0.13100001 0.65250003 16573928
0.061000004 -0.127 0.65200001 16705001
0.058000002 -0.12200001 0.65300006 16705001
0.061000004 -0.12400001 0.65100002 16705001
0.119 -0.123 0.65200001 1249828
0.13600001 -0.123 0.65300006 3422550
0.056500003 -0.11750001 0.65200007 16705001
0.053000003 -0.11100001 0.65300006 16508649
0.055000003 -0.11300001 0.65100002 16639978
0.163 -0.11000001 0.65100002 1580339
0.16700001 -0.11200001 0.65275002 1448753
0.17225 -0.112 0.65175009 1580338
0.178 -0.11050001 0.65100002 1646388
0.050999999 -0.10700001 0.65200007 16639721
0.15900001 -0.10700001 0.65000004 1580340
0.163 -0.108 0.65400004 1580339
0.178 -0.108 0.653 1777717
0.18133335 -0.10666668 0.65266675 1976122
0.185 -0.108 0.65000004 1778485
0.047000002 -0.10300001 0.65400004 16639208
0.050999999 -0.104 0.65050006 16705001
0.15700001 -0.10200001 0.65000004 1844022
0.16000001 -0.105 0.65300006 1645878
0.18300001 -0.10300001 0.65400004 2502209
0.186 -0.104 0.65100002 2634566
0.042000003 -0.095000006 0.65400004 16441829
0.046000004 -0.097500004 0.65150005 16573415
0.15400001 -0.096000001 0.65000004 1975352
0.15700001 -0.1 0.65400004 1712436
0.18300001 -0.1 0.65400004 2502209
0.1858 -0.097800002 0.65180004 2569034
0.039000001 -0.093000002 0.65400004 16376035
0.042000003 -0.092000008 0.65100002 16376035
0.15400001 -0.094000004 0.65300006 2171706
0.18300001 -0.092000008 0.65250003 2569551
0.033 -0.087000005 0.653 15653086
0.037666667 -0.08866667 0.65100002 15981793
0.14600001 -0.086000003 0.65200001 1449004
0.15200001 -0.089000002 0.65400004 1974068
0.18150002 -0.087500006 0.65150005 3095638
0.022500001 -0.082000002 0.65350008 15390428
0.027000001 -0.083333336 0.65266675 15455965
0.031000001 -0.084000006 0.65100002 15521245
0.13500001 -0.080000006 0.65200001 1579307
0.14 -0.083000004 0.65300006 1448236
0.17750001 -0.082500003 0.653 3029592
0.0080000004 -0.077000007 0.65400004 15258846
0.012 -0.076000005 0.65200007 15324382
0.016666668 -0.078000002 0.65200001 15324380
0.021000002 -0.079000004 0.65100002 15455965
0.12900001 -0.077000007 0.65000004 1513514
0.17300001 -0.076000005 0.65300006 3291993
0.17600001 -0.078000002 0.65100002 3489886
-0.0065000001 -0.071000002 0.65350008 14864603
-0.0020000001 -0.071000002 0.65200001 14798811
0.0015 -0.072500005 0.65200007 14930396
0.0065000001 -0.073500007 0.65100002 15062238
0.12100001 -0.072000004 0.65000004 1710377
0.171 -0.073000006 0.65400004 2896460
-0.026000001 -0.066 0.65400004 14404566
-0.021666668 -0.067000002 0.65266675 14535639
-0.018000001 -0.067500003 0.65250003 14536152
-0.013250001 -0.068000004 0.65200007 14667481
-0.0065000001 -0.068000004 0.65050006 14733018
0.11700001 -0.068000004 0.65149999 1644840
0.16600001 -0.066 0.653 2831181
0.17 -0.07 0.65100002 3291990
-0.073000006 -0.061000004 0.65100002 16376808
-0.07 -0.064000003 0.65300006 15785443
-0.053000003 -0.063000001 0.65100002 14075600
-0.049000002 -0.064000003 0.65400004 13877709
-0.036000002 -0.064000003 0.65400004 14141393
-0.032500003 -0.063000001 0.65100002 14009808
0.11300001 -0.064000003 0.65200001 1776168
0.164 -0.062000003 0.65100002 2897234
-0.076499999 -0.057000004 0.65200001 16640494
0.11300001 -0.059000004 0.65200001 1842474
0.1225 -0.056000002 0.65200007 1909301
0.156 -0.057000004 0.65300006 3553880
0.16100001 -0.059000004 0.65100002 3028818
-0.080000006 -0.053000003 0.65100002 13613246
0.12900001 -0.053000003 0.65100002 2502479
0.133 -0.052500002 0.65150005 2502737
0.13700001 -0.051000003 0.65200001 2830418
0.1415 -0.051000003 0.65300006 2765910
0.146 -0.051000003 0.65100002 3748438
0.15200001 -0.054000001 0.65150005 4926272
-0.088000007 -0.048 0.65200001 3354164
-0.083000004 -0.050000001 0.65000004 4142911
-0.11000001 -0.040000003 0.65300006 15655139
-0.10700001 -0.041500002 0.653 5787475
-0.10300001 -0.041500002 0.65250003 3419445
-0.097500004 -0.043000001 0.65250003 3090994
-0.094000004 -0.045000002 0.65400004 3682619
-0.112 -0.038000003 0.65300006 16707567
-0.10800001 -0.037500001 0.65050006 9142659
-0.020000001 -0.037 0.65000004 1840161
-0.112 -0.033500001 0.65300006 13221310
-0.109 -0.033500001 0.65100002 4866632
-0.015000001 -0.033500001 0.65000004 1774880
-0.12100001 -0.027000001 0.65400004 4999519
-0.11800001 -0.027000001 0.65400004 4339005
-0.1128 -0.028200001 0.65300006 7103339
-0.10766667 -0.029000001 0.65066671 5591647
-0.10233334 -0.028000003 0.65200001 2697268
-0.097500004 -0.028500002 0.65000004 2301992
-0.13700001 -0.022000002 0.65400004 3225162
-0.134 -0.022000002 0.65200001 5659764
-0.126 -0.025 0.65200001 5660795
-0.123 -0.025 0.65100002 5397105
-0.11850001 -0.024 0.65100002 5001061
-0.1118 -0.023399999 0.65200007 6645114
-0.10700001 -0.023500001 0.65350008 5461350
-0.10350001 -0.023500001 0.65350008 3157560
-0.099000007 -0.024 0.65200001 4605000
-0.10800001 -0.019000001 0.65100002 4277078
-0.087000005 -0.017000001 0.65100002 986385
-0.081750005 -0.018000001 0.65200007 2828588
-0.076499999 -0.018000001 0.65250003 1841696
-0.072000004 -0.017000001 0.65000004 2104873
-0.091666676 -0.012000001 0.6516667 1575700
-0.087250002 -0.0125 0.65375006 1313554
-0.075000003 -0.011000001 0.65400004 1973542
-0.073000006 -0.012500001 0.65250003 1579044
0.178 -0.012 0.65100002 1183771
0.18000001 -0.012 0.65000004 1184030
