# .PCD v0.7 - Point Cloud Data file format
VERSION 0.7
FIELDS x y z rgb
SIZE 4 4 4 4
TYPE F F F U
COUNT 1 1 1 1
WIDTH 1197
HEIGHT 1
VIEWPOINT 0 0 0 1 0 0 0
POINTS 1197
DATA ascii
0.13700001 0.20700002 0.60600001 3416098
0.14 0.20650001 0.6085 3416355
-0.022333333 0.21266669 0.60633332 3482404
0.13700001 0.21200001 0.60733336 3218719
0.149 0.21400002 0.60900003 2891291
-0.021333335 0.21666665 0.60700005 5912110
-0.017000001 0.21900001 0.60500002 2889490
0.132 0.21800001 0.60600001 2890011
0.13500001 0.21600001 0.60800004 2890010
-0.020666668 0.22133334 0.60700005 7027241
-0.017000001 0.22200002 0.60500002 6634028
0.13150001 0.222 0.60699999 2102035
-0.020000001 0.22750002 0.6085 7287589
-0.017000001 0.2265 0.60650003 7091750
0.12800001 0.22900002 0.60700005 2364697
0.13100001 0.22700001 0.60800004 2168341
-0.018000001 0.23200001 0.60800004 7289646
-0.014000001 0.23266669 0.60633332 6434853
0.123 0.23400001 0.60600001 2430746
0.12650001 0.2315 0.60750002 2496537
-0.011 0.23650002 0.60650003 6106404
0.11800001 0.23900001 0.60600001 2561816
0.1215 0.23700002 0.60699999 2496537
0.126 0.23500001 0.60800004 2759708
-0.010000001 0.24000001 0.60800004 6041639
-0.0060000001 0.24200001 0.60650003 5778727
0.11650001 0.24250001 0.60699999 2693659
0.12100001 0.24150002 0.6085 2693402
-0.0050000004 0.24600001 0.60900003 4203555
-0.0020000001 0.245 0.60600001 4991269
0.0015 0.2475 0.60600007 3809310
0.11200001 0.24666667 0.60633332 2627611
0.11700001 0.24699999 0.60866666 2496025
0.003 0.252 0.60900003 2364181
0.0070000007 0.25166667 0.60700005 2627094
0.011500001 0.25350001 0.60600007 2035475
0.107 0.25233334 0.60666662 2561303
0.11200001 0.25233334 0.60833335 2364693
0.011500001 0.257 0.6085 3941408
0.016999999 0.257 0.60600001 3349532
0.022000002 0.259 0.60549998 3940382
0.096500009 0.25850001 0.60600007 2495253
0.1015 0.25550002 0.60600007 2495509
0.10600001 0.25600001 0.60800004 2495510
0.11700001 0.257 0.60900003 2693911
0.017000001 0.2615 0.6085 4728610
0.022000002 0.26200002 0.60650003 4663333
0.026000001 0.26100001 0.60500002 4400162
0.033 0.264 0.60500002 3939872
0.082000002 0.26300001 0.60500002 2495253
0.086500004 0.26350001 0.60699999 2429204
0.091499999 0.26050001 0.60600007 2429460
0.096000001 0.26200002 0.60900003 2363667
0.101 0.26000002 0.60900003 2429462
0.023000002 0.266 0.60900003 4268835
0.027000001 0.26550001 0.60750008 4071970
0.032500003 0.26700002 0.60699999 3283482
0.037500001 0.26850003 0.60750008 2692631
0.042500004 0.26800001 0.60650003 3021338
0.047500003 0.26800001 0.60549998 3283740
0.052500002 0.26800001 0.60500002 2889496
0.058000006 0.26800001 0.60600001 2692375
0.063000001 0.26900002 0.60700005 2692375
0.067000002 0.26900002 0.60700005 2429203
0.071999997 0.26700002 0.60650003 2429462
0.077000007 0.266 0.60600001 2363925
0.080000006 0.26700002 0.60800004 2298646
0.072000004 0.27000001 0.60900003 2495254
0.048 0.093000002 0.61400002 7617331
0.053000003 0.093000002 0.61400002 7683638
0.058000006 0.093000002 0.61400002 6370610
0.063000001 0.093000002 0.61400002 4596771
0.067000002 0.093000002 0.61400002 4401451
0.026333334 0.097666673 0.61299998 8338741
0.031600002 0.097000003 0.61200005 7944497
0.0374 0.095799997 0.61240005 7747632
0.043000005 0.096000001 0.61150002 7616560
0.048000004 0.096000001 0.61100006 7353646
0.053333338 0.095666669 0.61133337 7617074
0.057750005 0.096000001 0.61100006 7420725
0.062750004 0.096000001 0.611 6829874
0.068000004 0.095666669 0.61100006 5451051
0.072750002 0.096000001 0.61125004 4925995
0.077333339 0.096666671 0.61233336 3809827
0.082500003 0.098000005 0.61250007 3021858
0.016000001 0.103 0.61150002 8798778
0.021000002 0.101 0.61224997 8666676
0.025 0.101 0.61100006 8666935
0.084000006 0.1 0.61000001 4335662
0.088 0.10066667 0.61100006 3153698
0.092333339 0.10233334 0.61266667 2759199
0.097000003 0.10300001 0.61400002 2693663
0.0070000007 0.10766667 0.61200005 8732730
0.011 0.10600001 0.61175001 8732729
0.097500004 0.105 0.61150002 2561822
0.10266667 0.10733334 0.61266667 2561822
-0.0020000001 0.112 0.61400002 8601399
0.0015 0.112 0.61225003 8864572
0.0050000004 0.111 0.61100006 8601657
0.10800001 0.11150001 0.611 2233369
0.112 0.11300001 0.61300004 2299163
-0.0055000004 0.117 0.61275005 9587779
-0.0020000001 0.116 0.61100006 9127487
0.112 0.115 0.61000001 2299676
0.116 0.11700001 0.61250007 2102297
-0.010500001 0.12225001 0.61250007 9455424
-0.0070000002 0.12100001 0.61100006 9915975
0.119 0.123 0.61000001 3022884
0.12100001 0.1225 0.61200005 2167835
-0.017000001 0.12800001 0.61400002 9784128
-0.013500001 0.126 0.61200005 9455681
0.12200001 0.126 0.61000001 3220262
0.126 0.12800001 0.61200005 2299932
-0.020000001 0.132 0.61300004 9850179
-0.017000001 0.13200001 0.61133331 9653057
-0.015000001 0.13000001 0.611 9389629
0.12800001 0.13100001 0.611 3087390
0.13050002 0.133 0.61300004 2299674
-0.022200001 0.13680001 0.61219996 9587008
-0.019000001 0.13700001 0.61000001 9455421
0.13200001 0.13733335 0.61133331 3152927
-0.027000001 0.14300001 0.61300004 9850177
-0.024500001 0.141 0.61150002 9915716
0.133 0.142 0.61000001 4400677
0.13600001 0.142 0.61300004 3022625
-0.028000003 0.14666666 0.61233336 10179137
-0.024 0.14500001 0.61000001 10179139
0.13700001 0.14666668 0.61199999 3875362
-0.028500002 0.1515 0.61125004 8732469
0.13900001 0.15100001 0.61150002 4203554
0.142 0.15300001 0.61400002 3809826
-0.032000002 0.1575 0.61400002 4470838
-0.029000001 0.156 0.61133337 5716538
0.13800001 0.155 0.61000001 4137510
0.142 0.15700001 0.61250007 4072231
-0.033000004 0.16266666 0.61266667 8406073
-0.030000001 0.16150001 0.61000001 7028022
0.1415 0.16150001 0.611 3940901
0.14500001 0.164 0.61400002 3744549
-0.033500001 0.16725001 0.61175001 10376258
0.1415 0.1665 0.61000001 3546657
0.14500001 0.16800001 0.6135 3743776
-0.035 0.17250001 0.61200005 9981244
0.14500001 0.17250001 0.61200005 3415326
-0.037 0.177 0.61400002 9915195
-0.035 0.17750001 0.611 8929329
0.14500001 0.178 0.61200005 3678500
0.15800001 0.17500001 0.61200005 3221288
-0.037 0.18100001 0.61400002 9324086
-0.035 0.1825 0.611 9389879
0.142 0.18400002 0.61000001 3482148
0.14500001 0.18200001 0.61300004 3744549
0.15800001 0.18000001 0.611 2629151
-0.035 0.18700001 0.611 9325370
0.142 0.18700001 0.61000001 2431004
0.14600001 0.18650001 0.6135 3416355
-0.033999998 0.19233334 0.61166674 5122855
0.14300001 0.19150001 0.61150002 1971481
0.156 0.19000001 0.61000001 2497565
-0.033999998 0.19666667 0.61200005 5452070
0.14300001 0.1965 0.611 1643797
0.15400001 0.19900002 0.61400002 2431257
-0.033500001 0.20175001 0.61199999 6435881
0.14300001 0.20200001 0.611 2693660
0.15400001 0.20100001 0.611 2892063
-0.033666667 0.20700002 0.61299998 3547168
-0.030000001 0.208 0.61000001 3087902
0.14400001 0.20700002 0.61200005 3087902
0.15200001 0.20900001 0.611 3417378
-0.028750001 0.21225002 0.61125004 6765101
0.14250001 0.21100001 0.61199999 2562073
-0.029000001 0.21700001 0.61300004 3940124
-0.025 0.2175 0.61049998 3416349
0.13750002 0.21800001 0.61100006 2233109
0.142 0.215 0.61300004 1971221
-0.028000001 0.22150001 0.6135 5845287
-0.024 0.22300002 0.61049998 7815217
0.13700001 0.223 0.61300004 2299157
0.14 0.22100002 0.61400002 2364953
0.147 0.22100002 0.61200005 2758936
-0.024333334 0.22666667 0.61266667 7485994
0.134 0.2265 0.61150002 2496279
0.13700001 0.22600001 0.61400002 2693658
-0.021500003 0.2315 0.61150002 6763043
0.13150001 0.23200001 0.61100006 2758938
0.13500001 0.23100001 0.61300004 3022367
-0.020000001 0.23700002 0.61400002 6896424
-0.018000001 0.23750001 0.61250001 6896430
-0.015000001 0.23800001 0.611 6435627
0.12800001 0.23766667 0.61066669 2627865
0.132 0.23800001 0.61200005 2759195
0.13599999 0.23666668 0.61366671 2628122
-0.011500001 0.24250001 0.611 5581348
0.12400001 0.24250001 0.61049998 2627608
0.127 0.24300002 0.611 2627608
0.13100001 0.24200001 0.61200005 2627610
0.13500001 0.24000001 0.61400002 2759452
-0.0070000002 0.24700001 0.61200005 3677986
-0.0020000001 0.24900001 0.61000001 3284257
0.12300001 0.2475 0.61150002 2496280
0.127 0.24800001 0.61200005 2627610
0.13000001 0.245 0.61200005 2759194
-0.0050000004 0.25 0.61300004 2692887
-0.0020000001 0.25400001 0.61400002 3020825
0 0.252 0.611 2363668
0.11833334 0.252 0.61133337 2364694
0.12200001 0.25150001 0.61150002 2430232
0.125 0.25 0.61200005 2692890
0.003 0.25600001 0.61300004 3677467
0.0060000005 0.25733337 0.61166668 4072223
0.109 0.257 0.61000001 2496024
0.11333334 0.25733337 0.61133337 2429974
0.11700001 0.25500003 0.611 2495255
0.12 0.25600001 0.61200005 2626841
0.0080000004 0.26200002 0.61400002 5253669
0.011500001 0.26100001 0.61100006 4991267
0.016000001 0.26300001 0.61000001 5122856
0.099000007 0.26300001 0.611 2495253
0.103 0.26200002 0.61150002 2429718
0.1075 0.26100001 0.61150002 2495253
0.112 0.26200002 0.61300004 2298644
0.013 0.26500002 0.61300004 4991270
0.018000001 0.26800001 0.61300004 4071967
0.021000002 0.26700002 0.611 4269092
0.031000001 0.26900002 0.61000001 2232334
0.083000004 0.26800001 0.61000001 2495253
0.086000003 0.26900002 0.61200005 2495767
0.092500001 0.26550001 0.61100006 2167060
0.104 0.26500002 0.61400002 2298387
0.11000001 0.26500002 0.61400002 2495765
0.0275 0.2705 0.61250007 3087130
0.038000003 0.27400002 0.6135 3481633
0.043000005 0.273 0.61150002 3153180
0.048 0.273 0.61049998 2889751
0.053000003 0.273 0.61000001 2823960
0.057000004 0.273 0.61000001 2627094
0.061000004 0.27350003 0.61150002 2626838
0.065000005 0.27400002 0.61200005 2495510
0.076499999 0.27150002 0.61100006 2167317
0.081 0.273 0.61400002 2232853
0.089000002 0.27000001 0.61400002 2429975
0.052000001 0.27700001 0.61400002 2429715
0.068000004 0.27500001 0.61300004 2429716
0.07 0.27500001 0.61300004 2232853
0.041000001 0.088000007 0.61900002 6237482
0.046000004 0.088000007 0.61900002 5712683
0.050999999 0.088000007 0.61900002 4532006
0.026000001 0.093000002 0.61849999 8404531
0.031333335 0.092333339 0.61766672 8141875
0.035999998 0.091750003 0.61650002 8208182
0.041000001 0.091500007 0.61600006 8077368
0.045666669 0.090999998 0.61566669 7749431
0.050999999 0.090000004 0.61600006 6501164
0.056000002 0.090000004 0.61600006 5056034
0.061000004 0.091000006 0.61700004 4599087
0.067000002 0.091666669 0.61700004 3087906
0.071000002 0.092000008 0.61750007 2627868
0.076000005 0.093000002 0.61750007 2431519
0.080000006 0.094000004 0.61900002 4139565
0.016000001 0.098000005 0.61750007 9192506
0.021000002 0.097000003 0.61700004 9192506
0.026000001 0.095000006 0.61650002 8338482
0.030000001 0.095000006 0.61500001 7615531
0.079000004 0.096000001 0.61500001 2497822
0.082000002 0.096000001 0.61600006 2891040
0.086333334 0.096666671 0.61666673 3679270
0.090666674 0.097666673 0.61733341 4335144
0.096500009 0.099000007 0.61849999 4991531
0.0065000001 0.10300001 0.61800003 8732470
0.011500001 0.10175001 0.61675 8732727
0.016000001 0.1 0.61550003 8863799
0.096000001 0.101 0.61650002 4072232
0.10066667 0.10300001 0.61700004 4137768
0.105 0.104 0.61800003 4728876
-0.0020000001 0.108 0.61900002 9390659
0.0015 0.10700001 0.61725003 9258558
0.0065000001 0.105 0.61550003 8863801
0.10666668 0.10733334 0.61633337 3941417
0.11000001 0.109 0.61800003 3875623
-0.0056666671 0.11233333 0.61766672 9390399
-0.0020000001 0.11000001 0.61700004 8666679
0 0.11000001 0.61500001 9390401
0.11150001 0.11150001 0.61600006 3218721
0.11633334 0.11333334 0.61766666 3678244
-0.011 0.11675 0.61725003 9653315
-0.0070000002 0.115 0.61600006 8996156
0.11800001 0.11700001 0.61600006 3153699
0.12050001 0.118 0.61650002 3152928
-0.017000001 0.123 0.61800003 10376267
-0.014000001 0.12133334 0.61666673 9586754
0.123 0.12100001 0.61650002 2956319
0.126 0.12200001 0.61800003 3546914
-0.020666668 0.12766667 0.61800003 10376007
-0.017000001 0.125 0.61600006 10047302
0.12766667 0.12566666 0.61700004 2562331
-0.0228 0.13160001 0.61660004 10178630
0.13250001 0.13150001 0.61750007 2430746
-0.028000003 0.13766667 0.61766672 9915715
-0.025 0.13600001 0.61500001 9718337
0.134 0.13500001 0.61600006 2035734
0.13700001 0.13800001 0.61700004 1970967
-0.032000002 0.14400001 0.61900002 10178883
-0.029000001 0.14166667 0.61633337 9849665
0.13600001 0.14 0.61500001 2299929
0.14 0.14400001 0.61800003 2036762
-0.033000004 0.14833333 0.61800003 10178624
-0.030000001 0.14600001 0.61500001 10047550
0.13900001 0.14600001 0.61500001 2497563
0.14300001 0.149 0.61800003 2233880
-0.033500001 0.15275002 0.61675 8798780
0.142 0.15100001 0.61600006 2956574
0.14500001 0.15400001 0.61800003 2758943
-0.035 0.15800001 0.61650002 4405305
0.14500001 0.15800001 0.61650002 3416611
-0.037500001 0.16100001 0.61849999 6898240
-0.035 0.16100001 0.61500001 8536382
0.14700001 0.16249999 0.61699998 3546913
-0.040000003 0.16800001 0.61900002 10573379
-0.037 0.16600001 0.61650002 10311237
0.148 0.1665 0.61750007 3744291
-0.040000003 0.1715 0.61849999 10309695
-0.037 0.171 0.61550003 10375487
0.148 0.1715 0.61600006 3678755
-0.040000003 0.17700002 0.61750007 10112315
-0.037 0.17500001 0.61500001 9717813
0.148 0.17650001 0.61550003 3350048
0.15200001 0.17750001 0.61900002 3547685
0.15900001 0.17900001 0.61700004 2892323
-0.040000003 0.1825 0.61800003 9915450
0.149 0.18200001 0.61600006 3481634
0.15200001 0.18300001 0.61900002 3481634
-0.040000003 0.1875 0.61900002 7093297
-0.038000003 0.18650001 0.61500001 9325114
0.149 0.1875 0.61650002 3613734
0.15200001 0.18700001 0.61900002 3679270
-0.038000003 0.19250001 0.61600006 4466210
0.14650001 0.19250001 0.61550003 2561819
0.15166669 0.19166668 0.61866665 3547940
0.15566666 0.191 0.61833334 3088161
-0.040000003 0.19700001 0.61900002 4007200
-0.038000003 0.19750002 0.61600006 8933437
0.147 0.19700001 0.61600006 2299675
0.15150002 0.1965 0.61900002 3088162
0.155 0.19600001 0.61650002 2299930
-0.038000003 0.20200001 0.61600006 9457212
0.147 0.20100001 0.61600006 1905173
-0.038000003 0.20650001 0.61800003 6633514
0.14750001 0.20650001 0.61650002 1774102
0.15300001 0.208 0.61800003 3023907
-0.036000002 0.21300001 0.61800003 8867390
-0.034000002 0.21100001 0.61550003 6502439
0.147 0.21266668 0.61633343 1774356
0.1505 0.21300001 0.61750007 2628893
-0.036000002 0.21600001 0.61900002 8865328
-0.033 0.21650001 0.61600006 8208177
0.142 0.21900001 0.61500001 2562331
0.14650001 0.21775001 0.61625004 2234138
-0.033 0.22200002 0.61800003 8406585
-0.030000001 0.222 0.61550003 7356208
0.1415 0.22300002 0.61600006 2956574
0.14600001 0.22200002 0.61700004 2430744
-0.031000001 0.22700001 0.61800003 7747881
-0.028000001 0.22750002 0.61550003 7616810
0.142 0.22666669 0.61700004 3022366
0.1455 0.22600001 0.61600006 2627604
-0.028000001 0.23300001 0.61900002 7683631
-0.024 0.23300001 0.61550003 7026216
0.13750002 0.23100001 0.61500001 3022109
0.14166667 0.23133333 0.61666673 2824730
-0.026000001 0.23600002 0.61900002 7552560
-0.023000002 0.23800001 0.61800003 7158829
0.13800001 0.23500001 0.61500001 2824987
0.14 0.23500001 0.61500001 2562070
-0.020000001 0.24100001 0.61800003 6173226
-0.018000001 0.24400002 0.61800003 4662562
-0.015000001 0.24300002 0.61500001 5581861
-0.012666668 0.24666667 0.616 3612706
-0.011500001 0.25099999 0.61800003 2823960
-0.0080000004 0.252 0.61600006 2232850
-0.021000002 0.25600001 0.61900002 6173482
-0.0060000005 0.25633335 0.61800003 4662303
-0.0020000001 0.25800002 0.61700004 4661528
0 0.257 0.61500001 4137246
0.0020000001 0.26166669 0.61700004 5582119
0.0050000004 0.26300001 0.61600006 5384998
0.0080000004 0.26700002 0.61800003 4991524
0.011000001 0.266 0.61500001 4859940
0.016000001 0.26900002 0.61500001 4269605
0.097000003 0.26800001 0.61500001 2167060
0.1 0.26900002 0.61800003 2167060
0.10700001 0.26500002 0.61500001 2364179
0.013 0.27000001 0.61900002 3151381
0.022500001 0.27200001 0.61600006 2955802
0.084000006 0.27400002 0.61600006 2167571
0.092000008 0.27100003 0.61700004 2363668
0.095000006 0.27200001 0.61900002 2232853
0.029000001 0.27600002 0.61800003 3417123
0.032500003 0.27500001 0.61550003 3482147
0.038000003 0.27900001 0.61849999 3021851
0.042000003 0.27900001 0.61700004 2824473
0.046000004 0.27800003 0.61550003 2561815
0.050000001 0.27800003 0.61500001 2561301
0.056500003 0.27850002 0.61550003 2364180
0.061500002 0.27900001 0.61650002 2298644
0.073000006 0.27600002 0.61500001 2167317
0.077500001 0.27650002 0.61700004 2035731
0.087000005 0.27500001 0.61900002 2101778
0.067500003 0.28 0.61849999 2298643
0.071000002 0.28 0.61900002 2232850
0.026500002 0.089000002 0.62349999 8800061
0.031500001 0.089000002 0.62200004 8471610
0.036249999 0.087000005 0.62199998 6895152
0.041500002 0.086000003 0.62300003 4663337
0.046500001 0.086000003 0.62300003 3022113
0.0515 0.086000003 0.62300003 2759969
0.056250006 0.087500006 0.62199998 3153957
0.061500002 0.089000002 0.62150002 2628643
0.066500008 0.089000002 0.62200004 4598060
0.071500003 0.089000002 0.62300003 5187879
0.076499999 0.089000002 0.62400001 6042161
0.017000001 0.093000002 0.62300003 8601137
0.021500003 0.092000008 0.62175 8996153
0.026500002 0.091000006 0.62150002 9128254
0.030000001 0.091000006 0.62 8733498
0.072000004 0.091000006 0.62 3548456
0.076499999 0.091000006 0.62100005 5385517
0.081666671 0.092666678 0.62166667 5056810
0.086500004 0.09300001 0.62200004 5517102
0.091750003 0.09300001 0.62300003 5780017
0.096000001 0.094000004 0.62300003 5649200
0.0080000004 0.099000007 0.62300003 9389370
0.0115 0.09725 0.62199998 9126455
0.0165 0.096000001 0.62050003 9126457
0.093000002 0.096000001 0.62 5713711
0.097000003 0.096333332 0.62200004 5648431
0.10133334 0.097666673 0.62233335 5386030
-0.0020000001 0.104 0.62400001 9652541
0.0015 0.10250001 0.6225 9389627
0.0065000001 0.101 0.62100005 9192507
0.10300001 0.101 0.62100005 5320494
0.1074 0.10160001 0.62200004 5254702
0.11100001 0.10300001 0.62400001 5123887
-0.010000001 0.109 0.62400001 9915714
-0.0056666671 0.108 0.62233335 9258815
-0.0020000001 0.10600001 0.62100005 9192766
0.11225001 0.10600001 0.62125003 5058096
0.11700001 0.107 0.6236667 5123632
-0.0118 0.113 0.62239999 10047812
-0.0070000002 0.11100001 0.62100005 9718337
0.11300001 0.11000001 0.62 4663084
0.11766667 0.11066667 0.62133336 4991789
0.1225 0.11300001 0.62300003 4729385
-0.020000001 0.119 0.62300003 10244166
-0.017000001 0.118 0.62300003 9718336
-0.015000001 0.11750001 0.62100005 9587265
0.123 0.116 0.62066668 4532523
0.127 0.11700001 0.62300003 4466732
0.13000001 0.11800001 0.62400001 4269866
-0.021000002 0.12300001 0.62199998 10178632
-0.017000001 0.12100001 0.62 9718083
0.1275 0.1215 0.62050003 4073001
0.13100001 0.1225 0.62300003 4270123
-0.024000002 0.12733334 0.62133336 10309958
0.132 0.127 0.62100005 3416098
0.13500001 0.1275 0.62349999 4269609
-0.027750002 0.132 0.62250006 10178371
0.13700001 0.13233334 0.62233335 3481634
-0.032000002 0.13700001 0.62300003 10112577
-0.030000001 0.13600001 0.62200004 10243910
0.13700001 0.13600001 0.62 2824989
0.14050001 0.13800001 0.62300003 3219233
-0.033500001 0.14125 0.62225002 10047299
0.14 0.141 0.62 1970968
-0.038000003 0.148 0.62400001 10376516
-0.035 0.146 0.62050003 10507589
0.1435 0.146 0.62150002 2102809
-0.038000003 0.15150002 0.62250006 9127484
0.14600001 0.15100001 0.62200004 2037016
-0.040000003 0.15800001 0.62300003 4733495
-0.038000003 0.15650001 0.62050003 6439230
0.149 0.15700001 0.62300003 2168087
-0.041000005 0.16266668 0.62233335 8342853
0.149 0.16100001 0.62100005 2365979
-0.041999999 0.16666667 0.62166673 10376517
0.15200001 0.16800001 0.62250006 2627096
-0.043000001 0.17250001 0.62150002 10441281
0.15200001 0.17250001 0.62050003 3416355
0.16000001 0.17200001 0.62200004 3484200
-0.046000004 0.177 0.62400001 9980729
-0.043000001 0.17750001 0.62050003 9849398
0.156 0.17666668 0.62266666 2431002
0.16000001 0.17500001 0.62100005 3681582
-0.046000004 0.18000001 0.62400001 10112319
-0.043000001 0.18300001 0.62100005 9916479
0.15650001 0.18125001 0.62199998 2824989
-0.043000001 0.18700001 0.62100005 6306094
0.15650001 0.18674999 0.62075001 2956832
-0.041999999 0.19166668 0.62166673 5648681
-0.042333335 0.19666667 0.62233335 5844773
-0.041666668 0.20166667 0.62166673 3612700
0.15200001 0.20250002 0.62 2430747
-0.041000001 0.20600002 0.62200004 2826015
0.15100001 0.20700002 0.62 1774871
-0.038000003 0.21200001 0.62100005 8213834
0.15100001 0.21000001 0.62 2234652
-0.038000003 0.21650001 0.62250006 7290159
-0.037 0.22133334 0.62200004 8603187
-0.036000002 0.22700001 0.62400001 7946028
-0.033 0.22700001 0.62100005 7617068
-0.031000001 0.23100001 0.62 7814447
-0.031000001 0.23500001 0.62300003 7355438
-0.028000001 0.23700002 0.62300003 7158834
-0.026000001 0.24000001 0.62300003 6436912
-0.023000002 0.24300002 0.62200004 4926246
-0.021000002 0.245 0.62200004 4006436
-0.018000001 0.24800001 0.62200004 3019800
-0.018000001 0.25300002 0.62300003 5845030
-0.014333334 0.25233334 0.62033337 4399900
-0.018000001 0.257 0.62300003 6370861
-0.012600002 0.25760001 0.62080008 5648165
-0.0080000004 0.259 0.62100005 5977131
-0.013 0.26000002 0.62300003 6570036
-0.0050000004 0.26300001 0.62300003 5648683
-0.0020000001 0.26200002 0.62100005 5517611
0 0.266 0.62200004 5451046
0.0050000004 0.26800001 0.62100005 4925220
0.011000001 0.27200001 0.62200004 3282967
0.019000001 0.27400002 0.62 3481633
0.098000005 0.27400002 0.62300003 2101265
0.10300001 0.27100003 0.62100005 2167317
0.1075 0.27150002 0.62300003 3350813
0.016000001 0.27500001 0.62300003 4140076
0.022500001 0.27800003 0.62300003 3416867
0.026000001 0.27700001 0.62 3087646
0.082000002 0.27900001 0.62100005 2035985
0.090000004 0.27600002 0.62200004 2101778
0.029000001 0.28200001 0.62400001 2103064
0.033 0.28049999 0.62100005 2365464
0.074000001 0.28100002 0.62100005 2035985
0.077000007 0.28200001 0.62200004 2101778
0.085000001 0.28 0.62300003 1904913
0.030000001 0.084000006 0.62900001 3547939
0.036499999 0.084000006 0.62750006 3153955
0.041500002 0.084000006 0.62700003 3153443
0.046500001 0.084000006 0.62700003 3940901
0.0515 0.084000006 0.62700003 5385001
0.056500003 0.084000006 0.62700003 5712423
0.0165 0.089000002 0.62750006 9194562
0.021500003 0.088000007 0.62700003 8208183
0.026500002 0.087000005 0.62650001 7156269
0.032000002 0.085666664 0.6263333 5318693
0.061750002 0.086000003 0.62650001 6172976
0.066750005 0.086000003 0.62700003 6566961
0.071750008 0.086000003 0.62700003 6633014
0.077000007 0.086000003 0.62725008 6436149
0.081799999 0.087400004 0.62660003 6107955
0.087000005 0.087666668 0.62700003 5845297
0.091000006 0.088000007 0.62900001 5320496
0.0080000004 0.094000004 0.62800002 8863539
0.0118 0.092400007 0.62720001 9193018
0.015000001 0.092000008 0.62600005 8798260
0.088000007 0.090000004 0.625 5713711
0.092500001 0.090000004 0.62650001 5451311
0.097500011 0.091000006 0.62700003 5254703
0.101 0.093000002 0.62800002 5057837
0.0020000001 0.098333336 0.62733334 9586493
0.0060000005 0.097666673 0.62566668 9455420
0.10250001 0.095000006 0.62600005 5386029
0.10733334 0.096666671 0.62666672 5254444
0.112 0.098000005 0.62900001 4860715
-0.0050000004 0.103 0.62700003 9849662
-0.0020000001 0.101 0.62750006 9980734
0.11300001 0.1015 0.62550002 4926506
0.116 0.10200001 0.62750006 4663594
-0.010666667 0.10633334 0.62833333 10244163
-0.0070000002 0.10600001 0.62600005 9849664
0.12166667 0.10666668 0.62766671 4598060
0.125 0.109 0.62900001 4270123
-0.017000001 0.112 0.62800002 10047298
-0.014000001 0.11066667 0.6273334 10244163
0.12200001 0.11100001 0.625 4860974
0.12666667 0.11200001 0.6273334 4335146
0.13100001 0.11400001 0.62900001 4400682
-0.020666668 0.11666667 0.62733334 10244678
-0.017000001 0.115 0.62600005 10310727
0.13150001 0.11750001 0.62700003 4137768
-0.028000001 0.123 0.62900001 10376266
-0.024000002 0.12066668 0.62700003 10375753
0.133 0.12100001 0.625 4270123
0.13600001 0.12300001 0.62700003 4138281
-0.028666668 0.12700002 0.62766665 10309703
-0.025 0.125 0.625 10113094
0.13866667 0.127 0.62700003 4138536
-0.033 0.132 0.62800002 10573128
-0.030000001 0.13000001 0.62700003 10113091
0.1415 0.13100001 0.62800002 4007463
-0.038000003 0.13900001 0.62900001 10573128
-0.034333333 0.13633333 0.62633336 10375496
0.14250001 0.1365 0.62650001 4073256
0.14500001 0.13600001 0.62900001 4007975
-0.038000003 0.142 0.62650001 10441541
0.14400001 0.1415 0.62550002 3350307
0.147 0.14400001 0.62900001 4007722
-0.040000003 0.14750001 0.62750006 10508102
-0.038000003 0.14600001 0.625 10770758
0.147 0.14700001 0.62600005 2891040
-0.040000003 0.1525 0.62650001 8667964
0.15000001 0.15300001 0.62750006 2890781
-0.041999999 0.15733334 0.62700003 5259584
-0.043000001 0.162 0.625 8145737
0.15300001 0.16200002 0.62666672 2299930
-0.046000004 0.16600001 0.62750006 10048581
0.15700001 0.16733335 0.62833333 2759711
0.16150001 0.16700001 0.62800002 3680810
-0.046000004 0.171 0.62600005 10244415
0.1575 0.17175001 0.62625003 2562330
0.16100001 0.17 0.62600005 3549223
-0.048000004 0.17666668 0.62766665 10244158
0.15900001 0.17600001 0.625 2431772
-0.046000004 0.18300001 0.625 10245184
-0.046000004 0.1875 0.62550002 6042922
-0.046000004 0.193 0.62700003 8077875
-0.046000004 0.19700001 0.62700003 8800569
-0.046000004 0.2015 0.62800002 8998459
-0.046000004 0.20600002 0.62900001 8736318
-0.044000003 0.20650001 0.62650001 4200720
-0.041999999 0.21166669 0.62666672 3284765
-0.041000001 0.21600001 0.62700003 3087899
-0.041000001 0.22150001 0.62849998 7881265
-0.039000001 0.22400001 0.62600005 8668721
-0.039000001 0.22800002 0.62900001 8340530
-0.036000002 0.23 0.62700003 8143155
-0.034000002 0.23300001 0.625 7881012
-0.032500003 0.23750001 0.62750006 6502193
-0.0275 0.24300002 0.62650001 4663078
-0.0275 0.24650002 0.62849998 4268832
-0.023000002 0.24700001 0.625 3414037
-0.026000001 0.25400001 0.62800002 6764844
-0.022000002 0.25125 0.62600005 5450788
-0.026000001 0.257 0.62800002 5845544
-0.022000002 0.25550002 0.62600005 6830121
-0.011500001 0.264 0.62600005 5714474
-0.0080000004 0.264 0.625 5582632
-0.0020000001 0.26700002 0.62600005 5254439
0.003 0.27000001 0.625 4137244
0.0080000004 0.273 0.62600005 3612701
0.013 0.27600002 0.62600005 3942699
0.093000002 0.27800003 0.625 2036244
0.10200001 0.27700001 0.62800002 1970966
0.019000001 0.28 0.62700003 2693914
0.022500001 0.28350002 0.62800002 2826529
0.027000001 0.28200001 0.625 1576720
0.080000006 0.28300002 0.625 1839120
0.088000007 0.28200001 0.62700003 1839378
0.096000001 0.28 0.62900001 1905428
0.083000004 0.28500003 0.62800002 1904913
0.032000002 0.083000004 0.634 5385005
0.037 0.082500003 0.63300002 6172977
0.042000003 0.082000002 0.63200003 6434348
0.047000002 0.082000002 0.63100004 5777705
0.052000001 0.081 0.63225001 7092276
0.057 0.081 0.63174999 6961205
0.062250003 0.081 0.63150001 7027255
0.067249998 0.081 0.63150001 6633013
0.072500005 0.081250004 0.63225001 5975856
0.077500001 0.083000004 0.63200003 5910577
0.082500003 0.083000004 0.63349998 5911093
0.087000005 0.083000004 0.634 5517876
0.011500001 0.087500006 0.63300002 7879474
0.017000001 0.086333334 0.63166672 6895667
0.021500003 0.085000001 0.63250005 4795953
0.026500002 0.085000001 0.63050008 4139050
0.084000006 0.085000001 0.63000005 5845297
0.087500006 0.085000001 0.63100004 5517103
0.09300001 0.087000005 0.63150001 5057837
0.096000001 0.087000005 0.63300002 5057840
0.1 0.088000007 0.63300002 5255219
0.003 0.093000002 0.63300002 9982790
0.0065000006 0.091250002 0.63225001 9785669
0.010000001 0.090000004 0.63100004 9719877
0.103 0.092000008 0.63050008 4992047
0.10600001 0.092000008 0.63200003 4926255
0.11000001 0.094000004 0.634 4926511
-0.0050000004 0.098000005 0.63300002 10178369
-0.0020000001 0.096000001 0.63250005 9915196
0.001 0.095666669 0.63133335 9455418
0.0050000004 0.095000006 0.63000005 8731952
0.11150001 0.096000001 0.63150001 5057580
0.11650001 0.099000007 0.63250005 4598060
-0.010666667 0.10233334 0.63333338 10506564
-0.0063333339 0.10066667 0.63066673 10375235
0.11800001 0.101 0.63000005 4597802
0.12133334 0.10333333 0.63200003 4663853
-0.018000001 0.108 0.634 10375235
-0.014000001 0.10633334 0.63233334 10572613
0.1275 0.10800001 0.63250005 4204073
-0.021000003 0.11233333 0.63200003 10244419
-0.018000001 0.11000001 0.63100004 10770506
0.13100001 0.112 0.63200003 4335659
-0.028000001 0.119 0.634 10573128
-0.024333334 0.11633334 0.63133335 10638921
0.134 0.116 0.63150001 4269096
0.13700001 0.11800001 0.634 4334890
-0.029000001 0.1225 0.63250005 10310473
0.13800001 0.1215 0.63150001 4072232
0.14 0.12100001 0.634 4006951
-0.036000002 0.12900001 0.634 10704713
-0.033 0.12800001 0.63250005 10441802
-0.030000001 0.126 0.63100004 10244680
0.14250001 0.127 0.63250005 3612192
-0.038000003 0.134 0.63300002 10572872
-0.035 0.13250001 0.63100004 10638920
0.14500001 0.132 0.63200003 3612706
-0.041000001 0.13900001 0.63200003 10573128
-0.038000003 0.13700001 0.63100004 10243909
0.148 0.13800001 0.63200003 3875362
-0.041000001 0.14300001 0.63050008 10573128
0.148 0.141 0.63000005 4072485
0.15100001 0.142 0.63300002 3744035
-0.043000001 0.146 0.63300002 10836296
0.15200001 0.148 0.63166672 3613477
-0.043000001 0.15100001 0.63100004 9719363
0.15400001 0.15150002 0.63300002 3810085
-0.046000004 0.15800001 0.63300002 5325633
-0.043000001 0.155 0.63000005 8669255
0.15400001 0.15650001 0.63050008 3285026
0.15700001 0.15700001 0.63349998 3810854
0.16150001 0.15900001 0.63349998 3679523
-0.047000002 0.16266668 0.63200003 7686724
0.15700001 0.162 0.63150001 3351073
0.16100001 0.16250001 0.63200003 3876901
-0.049000002 0.16700001 0.63200003 10179650
0.16000001 0.16600001 0.63100004 3745572
-0.049000002 0.17250001 0.63000005 10573123
-0.049000002 0.18200001 0.63000005 10444355
-0.049000002 0.186 0.63100004 6240301
-0.049000002 0.192 0.63200003 9393224
-0.049000002 0.19750002 0.63250005 9524801
-0.049000002 0.20200001 0.634 9591112
-0.049000002 0.20500001 0.634 7289386
-0.047000002 0.21150002 0.63200003 8146757
-0.047000002 0.2175 0.634 8145466
-0.044000003 0.21650001 0.63050008 4267798
-0.044000003 0.22250001 0.63250005 8669498
-0.042000003 0.22600001 0.63100004 8538166
-0.042000003 0.23 0.634 8210748
-0.037500001 0.23300001 0.63100004 7948088
-0.038000003 0.23700002 0.63300002 5517096
-0.032500003 0.24150002 0.63100004 4070939
-0.032500003 0.24600001 0.63349998 5319202
-0.032000002 0.25150001 0.63349998 6700079
-0.027999999 0.25133333 0.63133335 6436651
-0.029000001 0.25500003 0.63100004 6108462
-0.0050000004 0.26900002 0.63000005 4268570
-0.0080000004 0.27000001 0.63300002 5320745
0 0.27200001 0.63000005 4334369
0.0060000001 0.27500001 0.63100004 4271146
0.011000001 0.27800003 0.63000005 3022625
0.105 0.27900001 0.63300002 3681323
0.0080000004 0.28 0.634 2562330
0.014 0.28300002 0.634 2497565
0.016000001 0.28100002 0.63000005 2168085
0.091000006 0.28300002 0.63100004 1905684
0.019000001 0.28500003 0.63200003 2168341
0.086000003 0.287 0.63200003 2036757
0.042500004 0.078000002 0.63850003 7945784
0.047500003 0.078000002 0.63750005 7486260
0.052500002 0.078000002 0.6365 7157552
0.057500005 0.078000002 0.63600004 6698036
0.0625 0.078000002 0.63600004 6763828
0.067500003 0.078000002 0.63700002 6369843
0.072999999 0.078000002 0.63800001 6370102
0.077000007 0.078000002 0.63900006 6304055
0.018000001 0.083000004 0.63900006 4204842
0.022000002 0.083000004 0.63700002 4335657
0.027333334 0.082333334 0.63633341 5778732
0.032000002 0.081 0.63800001 7222060
0.037 0.080000006 0.63700002 7551798
0.042000003 0.080000006 0.63600004 7419955
0.047000002 0.080000006 0.63500005 7814712
0.078000009 0.080500007 0.63550007 5976370
0.082000002 0.081 0.63700002 6107958
0.087000005 0.081666671 0.63700002 5779764
0.091000006 0.082500003 0.63800001 5189170
0.095000006 0.084000006 0.63800001 5189428
0.0065000001 0.088000007 0.63600004 7945779
0.011500001 0.086000003 0.63800001 4929079
0.015000001 0.085000001 0.63500005 4862003
0.097000003 0.086000003 0.63600004 5255219
0.10200001 0.087333329 0.63700008 5123891
0.1065 0.089000002 0.63800001 4860977
-0.0050000004 0.094000004 0.63900006 10245448
-0.0020000001 0.093000002 0.63700002 9981761
0.001 0.091666676 0.63633341 10246219
0.108 0.091000006 0.63500005 5058099
0.112 0.09300001 0.6365 4663341
-0.011500001 0.098500006 0.63800001 10506821
-0.0063333339 0.096666671 0.63633335 10178111
0.11700001 0.096333332 0.63733339 4663340
-0.018000001 0.104 0.63900006 10572357
-0.014333334 0.10166667 0.63733333 10637894
0.1225 0.101 0.6365 4598318
-0.021000003 0.10833334 0.63800007 10638662
-0.018000001 0.10600001 0.63600004 10703943
0.12800001 0.10600001 0.63600004 4204074
0.14300001 0.10600001 0.63900006 6637891
-0.028000001 0.11400001 0.63900006 10507847
-0.024333334 0.11233333 0.63700002 10638663
0.132 0.11000001 0.63600004 4204073
0.13500001 0.11300001 0.63600004 4401452
-0.031000001 0.119 0.63700002 10507849
-0.028000001 0.116 0.63600004 10442055
0.13800001 0.116 0.63700002 4204073
0.14 0.11800001 0.63700002 4204069
-0.033 0.12300001 0.63700002 10639438
-0.030000001 0.12200001 0.63500005 10442058
0.1435 0.12300001 0.63750005 3940902
-0.036000002 0.126 0.63750005 10836561
0.14600001 0.12800001 0.6365 3677985
-0.041000001 0.133 0.63900006 10967372
-0.038000003 0.13100001 0.63700002 10836299
0.149 0.13200001 0.63700002 3875620
-0.042000007 0.13666667 0.63700008 10770252
0.15200001 0.13600001 0.63700002 3744290
-0.043500002 0.142 0.63600004 10638921
0.15400001 0.14300001 0.63600004 3743779
0.15650001 0.14250001 0.63850003 3809827
-0.046000004 0.14750001 0.63800001 10836554
0.15700001 0.14666669 0.63700002 3613218
-0.046000004 0.15200001 0.63550007 9588801
0.15700001 0.1525 0.63550007 3547938
0.16100001 0.15300001 0.63750005 3547422
-0.046000004 0.156 0.63500005 9067096
0.16150001 0.15650001 0.63550007 4009003
-0.049000002 0.16100001 0.63700002 5390140
-0.052000001 0.1665 0.63850003 10048837
-0.052000001 0.171 0.63550007 10639171
-0.052000001 0.17650001 0.63500005 10573379
-0.052000001 0.1825 0.63600004 8277056
-0.052000001 0.18700001 0.63700002 4140331
-0.052000001 0.19100001 0.63800001 8938072
-0.060000002 0.19800001 0.63900006 10180680
-0.052000001 0.1965 0.63750005 6175794
-0.052000001 0.20250002 0.63850003 3941414
-0.052000001 0.20700002 0.63900006 4726816
-0.050000001 0.208 0.63600004 4203550
-0.050000001 0.21200001 0.63700002 3350302
-0.050000001 0.21650001 0.63800001 5189157
-0.048999999 0.22166668 0.63700002 8998973
-0.048500001 0.22725002 0.63725001 6962225
-0.045000002 0.22800002 0.63500005 9065542
-0.043500002 0.23250002 0.63700002 6567980
-0.043500002 0.23600002 0.63850003 4923417
-0.041333336 0.24266668 0.63833338 6897973
-0.038000003 0.24100001 0.63550007 5056286
-0.040000003 0.24600001 0.63700002 7753542
-0.037 0.24700001 0.6365 7225143
-0.034000002 0.24800001 0.63500005 6767152
-0.034000002 0.25100002 0.63500005 6700339
-0.010000001 0.27100003 0.63500005 5782066
-0.0020000001 0.27400002 0.63500005 4863281
0.003 0.27700001 0.63500005 4139818
0.0060000001 0.28200001 0.63900006 3747374
0.1 0.28300002 0.63600004 2958374
0.109 0.28200001 0.63900006 4535341
0.012500001 0.28650004 0.63800001 2432801
0.016000001 0.28600001 0.63500005 2761251
0.090000004 0.289 0.63600004 2234650
0.095000006 0.28600001 0.63600004 2497823
0.027000001 0.079000004 0.64350003 8799292
0.032666668 0.077333339 0.64233333 8405306
0.037500001 0.077000007 0.64175004 8142650
0.042500004 0.076000005 0.6415 7748408
0.047500003 0.076000005 0.64100003 7486009
0.052500002 0.076000005 0.64000005 7355450
0.057500005 0.076000005 0.64000005 6895157
0.063000001 0.076000005 0.64050007 6632244
0.067000002 0.076000005 0.64100003 6829882
0.071000002 0.076000005 0.64250004 6567480
0.076499999 0.076000005 0.64350003 6304823
0.081 0.079000004 0.64050007 6370617
0.086500004 0.079000004 0.64250004 6173753
0.091000006 0.079000004 0.64400005 5320242
0.011500001 0.084000006 0.64300001 4925996
0.017000001 0.082000002 0.64200008 5910058
0.022000002 0.081 0.6415 7221029
0.026000001 0.081 0.64000005 7418922
0.093000002 0.081 0.64100003 5255732
0.097000003 0.083000004 0.6415 5189171
0.101 0.084000006 0.64100003 5189429
-0.0020000001 0.089000002 0.64400005 7485746
0.0015 0.088500008 0.64100003 7813681
0.0065000001 0.086000003 0.6415 4600115
0.104 0.085000001 0.64400005 4992307
0.1075 0.087000005 0.64250004 4598318
-0.010000001 0.094000004 0.64300001 10575184
-0.0060000001 0.092500001 0.6415 10377034
-0.0020000001 0.091000006 0.64000005 10377810
0.11300001 0.091000006 0.64100003 4663855
0.11700001 0.093000002 0.64300001 4729904
-0.012666668 0.097333334 0.64133334 10441283
0.12100001 0.096500009 0.6415 4860719
0.125 0.098000005 0.64400005 4598060
-0.020000001 0.104 0.64200002 10374722
-0.018000001 0.10200001 0.64200002 10572100
0.12666667 0.10133334 0.64100003 4664110
0.13100001 0.10300001 0.64300001 4664106
0.142 0.104 0.64400005 6440254
-0.023000002 0.10700001 0.64200002 10769993
0.13233334 0.10633334 0.6413334 4335402
0.13600001 0.109 0.64400005 4204331
-0.027000001 0.111 0.64200002 10770249
0.13766669 0.11233333 0.6413334 4204074
0.142 0.11400001 0.64300001 4270124
0.147 0.11100001 0.64100003 5914168
-0.03166667 0.11666667 0.64233339 10639434
0.14250001 0.11750001 0.64100003 4204331
0.14500001 0.11700001 0.64400005 4335404
-0.036000002 0.12200001 0.64250004 10968143
-0.033 0.12 0.64100003 10507849
0.147 0.12200001 0.64200002 3941159
-0.041000001 0.12900001 0.64400005 10836048
-0.038500004 0.127 0.6415 10968403
0.147 0.125 0.64000005 3940902
0.15000001 0.12650001 0.64300001 4138536
-0.042500004 0.13250001 0.64250004 10901835
0.1525 0.132 0.6415 3875877
0.156 0.133 0.64300001 3744031
-0.047000002 0.13900001 0.64400005 10638408
-0.044000003 0.13600001 0.64100003 10967373
0.15700001 0.13725001 0.64200002 3942182
-0.046000004 0.14300001 0.64100003 10572871
0.15800001 0.141 0.64100003 3481888
0.162 0.142 0.64400005 5323318
-0.049000002 0.147 0.64400005 11165262
0.162 0.146 0.64250004 4665643
-0.049000002 0.15100001 0.6415 10770761
0.16100001 0.15000001 0.64100003 3219476
-0.052000001 0.15800001 0.64400005 6376526
-0.049000002 0.156 0.64000005 7817026
-0.052000001 0.162 0.64200002 6834759
-0.055000003 0.16800001 0.64350003 10377027
-0.055000003 0.17300001 0.6415 10704964
-0.056000005 0.17766666 0.64166671 10573636
-0.057 0.18166667 0.64300007 9588284
-0.057666671 0.18699999 0.64316672 7947576
-0.057666671 0.19266666 0.64300001 7815990
-0.057200003 0.1974 0.64139998 8339759
-0.056500003 0.20275 0.64025009 9654586
-0.056500003 0.20750001 0.6415 8604730
-0.056000005 0.21133335 0.64200002 6436909
-0.052500002 0.21150002 0.64050007 6899518
-0.056000002 0.21800001 0.64300001 7883328
-0.053000003 0.2175 0.64200002 6831924
-0.053000003 0.22300002 0.6415 7816502
-0.048 0.23300001 0.64000005 5976357
-0.048 0.23500001 0.64000005 7622212
-0.045000002 0.23900001 0.64100003 7357500
-0.0050000004 0.27600002 0.64000005 4139301
0 0.27900001 0.64000005 3088158
0.003 0.28400001 0.64400005 2103579
0.112 0.28300002 0.64200002 4863016
0.0080000004 0.28600001 0.64200002 3156525
0.011000001 0.289 0.64100003 2894894
0.098000005 0.28800002 0.64100003 2761766
0.104 0.28500003 0.64100003 3419183
-0.052000001 0.29100001 0.64400005 4675177
-0.042000003 0.29100001 0.64400005 4608613
-0.038000003 0.29100001 0.64400005 4542562
-0.033500001 0.29050002 0.64350003 4345439
-0.028500002 0.29100001 0.64400005 4148059
-0.024 0.29100001 0.64400005 4147546
0.0080000004 0.29000002 0.64300001 3092531
0.093000002 0.29100001 0.64000005 2235424
0.096000001 0.29200003 0.64400005 2432803
0.032500003 0.074000001 0.64850003 7945532
0.037500001 0.074000001 0.64700001 7813946
0.042500004 0.074000001 0.64600003 7551544
0.048 0.074000001 0.64500004 7420728
0.052666668 0.07333333 0.6463334 7223864
0.057000004 0.072999999 0.64700007 6895671
0.060666669 0.07333333 0.6463334 6698809
0.066 0.074000001 0.64600003 6567479
0.071500003 0.074000001 0.64649999 6633787
0.076499999 0.074000001 0.64850003 6042421
0.018000001 0.079000004 0.648 9259585
0.022333333 0.078333341 0.6463334 8996156
0.0275 0.076000005 0.64649999 8405306
0.031000001 0.076000005 0.64500004 8339513
0.081500009 0.077000007 0.64550006 5911351
0.087500006 0.077000007 0.64700001 5386293
0.092000008 0.078000009 0.64700007 5254964
0.0065000001 0.084000006 0.64700001 5582382
0.013 0.082000002 0.648 7616044
0.016000001 0.082000002 0.64600003 7221030
0.098000012 0.080666669 0.64700007 5123892
0.10200001 0.082000002 0.64700001 5255479
0.105 0.083000004 0.64900005 5124406
-0.0050000004 0.089000002 0.64700001 7553083
0.0015 0.087000005 0.64649999 4467501
0.10700001 0.085000001 0.64600003 4532783
0.111 0.086500004 0.648 4664626
-0.010000001 0.092000008 0.648 9457474
-0.0080000004 0.092000008 0.64500004 10180426
0.11650001 0.090500005 0.64649999 4664369
0.12 0.093000002 0.64600003 4598832
0.134 0.094000004 0.648 6836300
-0.018000001 0.097000003 0.648 11034448
-0.014333334 0.095666669 0.64666671 10705997
0.123 0.096000001 0.64600003 4794927
0.1275 0.097500004 0.64750004 4532011
0.13700001 0.099000007 0.64700001 4598311
-0.021333335 0.10166667 0.64700001 10375493
-0.018000001 0.1 0.64500004 10638664
0.133 0.10233334 0.64766669 4401452
0.13766669 0.10233334 0.64800006 4599343
0.14 0.104 0.64900005 4270377
-0.026666665 0.107 0.64733338 11033420
-0.023000002 0.105 0.64500004 10309442
0.13800001 0.10800001 0.64649999 4204330
0.1415 0.10700001 0.64850003 4270378
0.14500001 0.109 0.64500004 4927792
-0.031000001 0.11300001 0.64600003 10902093
-0.028000001 0.11000001 0.64500004 10967886
0.14250001 0.111 0.64700001 4203818
0.14500001 0.112 0.64700001 4269866
-0.036000002 0.119 0.64700001 10836812
-0.034000002 0.116 0.64700001 10705227
0.147 0.116 0.64600003 4204073
0.15100001 0.11800001 0.64700001 5717562
-0.039000001 0.1225 0.64649999 10836815
0.148 0.12 0.64500004 4204332
0.15166669 0.12266668 0.64666671 4599085
-0.042500004 0.12800001 0.64750004 10771280
0.15350002 0.127 0.64550006 4006694
0.15700001 0.12900001 0.64700001 5981246
-0.044000003 0.132 0.64600003 11296851
0.156 0.13100001 0.64500004 4271658
-0.047000002 0.13600001 0.64700001 11033168
-0.049000002 0.14300001 0.64700001 10902092
-0.052000001 0.149 0.64900005 10967883
-0.049000002 0.14500001 0.64500004 10704714
-0.055000003 0.1525 0.64900005 9983562
-0.052000001 0.15200001 0.64649999 10244165
-0.055000003 0.15700001 0.64900005 9394776
-0.052000001 0.156 0.64500004 8473159
-0.055000003 0.16200002 0.64766669 6835014
-0.058000002 0.1665 0.64850003 10378831
-0.061000004 0.17200001 0.64850003 10903114
-0.058000002 0.1715 0.64649999 11295816
-0.059333336 0.17633335 0.64600003 10638402
-0.060000002 0.18200001 0.64550006 10573123
-0.0080000004 0.27900001 0.64500004 3810336
-0.003 0.28200001 0.64600003 3088673
0 0.28600001 0.64900005 3157555
0.0060000001 0.28800002 0.64500004 3289655
0.108 0.289 0.648 3616562
-0.079000004 0.29000002 0.64700001 3090980
-0.047500003 0.29100001 0.64500004 4740456
-0.022000002 0.29100001 0.64500004 4016216
-0.017500002 0.29100001 0.64550006 3884631
-0.012 0.29150003 0.64649999 3752788
-0.0065000001 0.29200003 0.64750004 3620686
-0.003 0.29200003 0.648 3423305
0.0020000001 0.29133335 0.64766669 3488067
0.0060000001 0.29100001 0.64500004 3355964
0.10200001 0.29100001 0.64700001 2827561
0.0275 0.074000001 0.65100002 8077117
0.033 0.072000004 0.65350008 7946041
0.038000003 0.072000004 0.65149999 7814713
0.043000005 0.072000004 0.65000004 7749947
0.047000002 0.072000004 0.65000004 7289399
0.050000001 0.072000004 0.65000004 7881793
0.055000003 0.072000004 0.65000004 6961464
0.063000001 0.072000004 0.65000004 6699322
0.066500008 0.072000004 0.65100002 6764858
0.072000004 0.072000004 0.65250003 6567993
0.077500001 0.072000004 0.65350008 6174263
0.016666668 0.07766667 0.6516667 9391167
0.022500001 0.076000005 0.65150005 8733754
0.082500003 0.075000003 0.65050006 5911350
0.087500006 0.075000003 0.65250003 5714742
0.09300001 0.076000005 0.65250003 5583415
0.097000003 0.078000002 0.65300006 4861233
0.0065000001 0.082500003 0.653 8207667
0.011666667 0.080666669 0.65200001 8601911
0.10200001 0.080000006 0.65200001 5058612
0.1065 0.082000002 0.65250003 4730163
0.11100001 0.083000004 0.65300006 4795955
-0.0050000004 0.088000007 0.65300006 4994100
-0.0020000001 0.087000005 0.65000004 4270636
0.0015 0.085000001 0.65200007 6633010
0.11300001 0.086000003 0.65200001 4664371
0.11700001 0.087333344 0.65200001 4533297
-0.012666668 0.092000008 0.65266675 7489346
-0.0080000004 0.090000004 0.65000004 6437431
0.123 0.092333339 0.6516667 4467502
0.127 0.094000004 0.65200001 4138025
0.13150001 0.094000004 0.65400004 4204840
-0.021000002 0.098000005 0.65200001 10772563
-0.018000001 0.096000001 0.65300006 10509646
0.12900001 0.097000003 0.65100002 4598831
0.132 0.098000005 0.65100002 4466732
0.13500001 0.097500004 0.65050006 4532265
-0.026000001 0.10300001 0.65200001 11165515
-0.023000002 0.101 0.65100002 10836813
-0.031000001 0.109 0.65300006 10836814
-0.029000001 0.10600001 0.65200001 11099986
-0.037 0.11400001 0.65400004 11164493
-0.033000004 0.11233333 0.65133339 11033936
-0.037500001 0.118 0.65100002 10902605
-0.042000003 0.12300001 0.65100002 10902864
-0.044500001 0.126 0.65250003 11034453
-0.047000002 0.132 0.65200007 11099729
-0.050000001 0.13700001 0.65250003 11231055
-0.052000001 0.14400001 0.65200001 10902862
-0.050000001 0.141 0.65000004 11033166
-0.055000003 0.148 0.65200007 11034444
-0.052000001 0.14600001 0.65000004 10902858
-0.058000002 0.15100001 0.653 10575180
-0.058000002 0.156 0.65050006 8343884
-0.061000004 0.16150001 0.65200001 7820879
-0.058000002 0.16150001 0.65050006 6375748
-0.061000004 0.16700001 0.65050006 10444621
-0.011000001 0.28100002 0.65000004 4931136
-0.0050000004 0.28400001 0.65100002 2893353
-0.003 0.28800002 0.65300006 3947842
-0.077000007 0.29200003 0.65100002 3025962
-0.072999999 0.29200003 0.65200001 4871256
-0.067500003 0.29200003 0.65300006 5069420
-0.062000003 0.29200003 0.65300006 4937834
-0.056500003 0.29200003 0.65300006 5003627
-0.052000001 0.29200003 0.65300006 4937835
-0.048500001 0.29200003 0.65400004 4806250
-0.042500004 0.29200003 0.65300006 4674663
-0.037 0.29200003 0.65300006 4542819
-0.033 0.29200003 0.65300006 4345696
-0.028500002 0.29200003 0.65350008 4213853
-0.023500001 0.29200003 0.65400004 4082523
-0.019000001 0.29200003 0.65400004 4016473
-0.0050000004 0.29200003 0.65400004 3686990
-0.003 0.29100001 0.65300006 3751497
0 0.29000002 0.65100002 3817032
0.10600001 0.294 0.65300006 2959406
0.11100001 0.29100001 0.65300006 3616305
0.024 0.073000006 0.65900004 8799549
0.0275 0.072000004 0.65649998 8470845
0.034000002 0.07 0.65900004 8208701
0.037 0.07 0.65800005 8077630
0.041000001 0.07 0.65649998 7749437
0.046000004 0.07 0.65550005 7289913
0.0515 0.07 0.65500003 7289914
0.056500003 0.07 0.65500003 6633273
0.061500002 0.07 0.65500003 6830906
0.067000002 0.07 0.65649998 6567993
0.072500005 0.07 0.65750003 6700350
0.078000009 0.07 0.65850008 6502972
0.083000004 0.072500005 0.65550005 6043706
0.087000005 0.073000006 0.65700001 5846843
0.091499999 0.073000006 0.65850008 5846585
-0.011500001 0.076499999 0.65700006 8884134
0.012 0.077500001 0.65700006 9391167
0.017500002 0.075000003 0.65700006 9259325
0.021000002 0.075000003 0.65500003 9127999
0.096500009 0.075500004 0.65649998 5386806
0.10133334 0.077333339 0.65700001 5058613
0.10600001 0.078000002 0.65800005 4731191
-0.018000001 0.080000006 0.65500003 8357787
0.0015 0.083000004 0.65700006 9588805
0.0065000001 0.080000006 0.65700006 9653571
0.108 0.081 0.65600002 4598576
0.11250001 0.082500003 0.65700006 4533810
0.11700001 0.084000006 0.65800005 4600116
-0.010000001 0.088000007 0.65900004 7749436
-0.0065000001 0.087000005 0.65750003 6961461
-0.0020000001 0.085000001 0.65600002 7814971
0.119 0.086000003 0.65700001 4402739
0.1225 0.088 0.65700006 4337461
0.125 0.089000002 0.65800005 4599348
-0.018000001 0.094000004 0.65800005 7096641
-0.013 0.091000006 0.65700001 5387574
0.12800001 0.092000008 0.65600002 4205873
0.132 0.092000008 0.65650004 5457223
-0.026000001 0.099000007 0.65900004 9460052
-0.022000002 0.097500004 0.65649998 10313811
-0.027999999 0.10233334 0.6566667 10970716
-0.031000001 0.10600001 0.65750003 10970199
-0.037 0.112 0.65700001 11165522
-0.034000002 0.11000001 0.65700001 11165010
-0.047000002 0.115 0.65600002 8155527
-0.042000003 0.11800001 0.65800005 11428436
-0.039000001 0.116 0.65600002 11230288
-0.044 0.12133334 0.65633339 11099988
-0.047499999 0.127 0.65750003 11034453
-0.050000001 0.133 0.65700006 10968914
-0.053000003 0.13800001 0.65700006 11427153
-0.056000002 0.14300001 0.65800005 10771534
