# .PCD v0.7 - Point Cloud Data file format
VERSION 0.7
FIELDS x y z rgb
SIZE 4 4 4 4
TYPE F F F U
COUNT 1 1 1 1
WIDTH 1198
HEIGHT 1
VIEWPOINT 0 0 0 1 0 0 0
POINTS 1198
DATA ascii
0.045000002 0.15800001 0.86100006 2899011
0.048 0.15700001 0.85600007 3425097
0.052000001 0.15700001 0.85400003 2964034
0.055000003 0.15700001 0.85600007 2306104
0.059000004 0.15700001 0.85900003 2042419
0.063000001 0.15800001 0.86200005 1976621
0.066 0.15800001 0.86300004 2107955
0.07 0.15800001 0.86300004 2305334
0.073000006 0.15800001 0.86200005 2700349
0.076000005 0.15800001 0.86100006 3818576
0.080000006 0.15800001 0.86000001 7174275
0.0070000002 0.16600001 0.88700002 6121322
0.011000001 0.164 0.87800002 8359060
0.014 0.164 0.87400001 6056567
0.018000001 0.163 0.87300003 4543322
0.021000002 0.163 0.87200004 3556684
0.025 0.163 0.87100005 3030854
0.028000001 0.163 0.86900002 2570304
0.032000002 0.163 0.86800003 2504511
0.035 0.162 0.86700004 2899011
0.039000001 0.162 0.86600006 2306361
0.042000003 0.162 0.86400002 4674909
0.045000002 0.16100001 0.86100006 2832704
0.048 0.16000001 0.85600007 2043189
0.052000001 0.16000001 0.85300004 1977139
0.055000003 0.16000001 0.85600007 2239282
0.059000004 0.16100001 0.85900003 2173232
0.063000001 0.162 0.86200005 2239284
0.066 0.162 0.86300004 2239284
0.07 0.162 0.86200005 2239284
0.073000006 0.16100001 0.86000001 1976111
0.076000005 0.16100001 0.85800004 2107696
0.080000006 0.16100001 0.85600007 2897471
0.083000004 0.16100001 0.85600007 6845823
0.0070000002 0.16900001 0.88100004 5462624
0.011000001 0.16800001 0.87600005 7831687
0.014 0.16700001 0.87300003 5661038
0.018000001 0.16700001 0.87200004 4279894
0.021000002 0.16700001 0.87100005 3490378
0.025 0.16600001 0.87000006 3029827
0.028000001 0.16600001 0.86800003 2569532
0.032000002 0.16600001 0.86700004 2503741
0.035 0.16600001 0.86700004 2832706
0.039000001 0.16600001 0.86600006 2503738
0.042000003 0.16500001 0.86400002 3555913
0.045000002 0.16500001 0.86200005 2766398
0.049000002 0.164 0.85700005 5529962
0.052000001 0.163 0.85200006 2568249
0.055000003 0.164 0.85400003 2107698
0.059000004 0.164 0.85700005 2370355
0.063000001 0.16500001 0.86000001 2173489
0.066 0.16500001 0.85900003 2370868
0.069000006 0.164 0.85800004 2765626
0.076000005 0.163 0.85100001 1844780
0.079000004 0.163 0.84900004 2239795
0.082000002 0.163 0.84800005 2305334
0.086000003 0.163 0.84800005 7700875
0.0070000002 0.17300001 0.88300002 4805210
0.011000001 0.171 0.87700003 6779002
0.014 0.171 0.87400001 5068641
0.018000001 0.17 0.87200004 3885136
0.021000002 0.17 0.87000006 3095620
0.025 0.17 0.87000006 2832706
0.028000001 0.17 0.86800003 2569534
0.032000002 0.16900001 0.86600006 2437950
0.035 0.16900001 0.86600006 2503484
0.039000001 0.16900001 0.86600006 2108725
0.042000003 0.16900001 0.86400002 5792616
0.045000002 0.16900001 0.86200005 4608596
0.049000002 0.16800001 0.85800004 2832444
0.052000001 0.16600001 0.84900004 5529192
0.055000003 0.16600001 0.84900004 2042163
0.058000002 0.16600001 0.84900004 2239282
0.062000003 0.16700001 0.85300004 2305588
0.065000005 0.16700001 0.85200006 2436919
0.079000004 0.16500001 0.84400004 1778733
0.082000002 0.16500001 0.84100002 2042162
0.085000001 0.16500001 0.84100002 3029827
0.088000007 0.16500001 0.84000003 7700882
0.011000001 0.17500001 0.87800002 6318707
0.014 0.17400001 0.87400001 4871262
0.018000001 0.17400001 0.87300003 3753548
0.021000002 0.17400001 0.87100005 3095620
0.025 0.17400001 0.87100005 3029827
0.028000001 0.17300001 0.86800003 2635069
0.032000002 0.17300001 0.86700004 2700093
0.035 0.17300001 0.86600006 2569277
0.039000001 0.17300001 0.86600006 2371126
0.042000003 0.17300001 0.86400002 3424070
0.045000002 0.17200001 0.86300004 4017229
0.049000002 0.17200001 0.85900003 3490376
0.052000001 0.17 0.85000002 4740702
0.055000003 0.16900001 0.84700006 3358793
0.058000002 0.16800001 0.84300005 3556425
0.062000003 0.16900001 0.84500003 6187121
0.065000005 0.16800001 0.84200007 8094861
0.068000004 0.16800001 0.84200007 7107709
0.071000002 0.16800001 0.84100002 5791337
0.075000003 0.16800001 0.83900005 5199453
0.078000002 0.16800001 0.84000003 4738903
0.081 0.16800001 0.83800006 4673624
0.085000001 0.16800001 0.83700001 5528934
0.088000007 0.16700001 0.83600003 5857904
0.091000006 0.16800001 0.83700001 8094865
0.0070000002 0.18200001 0.89200002 4608087
0.011000001 0.18000001 0.88500005 6318961
0.014 0.17900001 0.88100004 4739929
0.018000001 0.17900001 0.87900007 3753802
0.021000002 0.178 0.87600005 3030080
0.025 0.178 0.87500006 3029311
0.028000001 0.177 0.87100005 2765885
0.032000002 0.177 0.86900002 2502971
0.035 0.177 0.86800003 2634300
0.039000001 0.177 0.86800003 2502713
0.042000003 0.177 0.86700004 2173489
0.046000004 0.177 0.86600006 5463905
0.049000002 0.17600001 0.86400002 3489603
0.052000001 0.17400001 0.85500002 3424324
0.055000003 0.17300001 0.85000002 2963262
0.058000002 0.17200001 0.84500003 3489605
0.062000003 0.17200001 0.84500003 2633268
0.065000005 0.17200001 0.84300005 2633268
0.068000004 0.17200001 0.84400004 2501682
0.072000004 0.17200001 0.84300005 2501937
0.075000003 0.17200001 0.84000003 2501682
0.078000002 0.17200001 0.84000003 2567474
0.082000002 0.171 0.83900005 2501939
0.085000001 0.171 0.83800006 2567474
0.088000007 0.171 0.83800006 2698802
0.092000008 0.17200001 0.84000003 2830648
0.0080000004 0.18800001 0.90700006 4937054
0.011000001 0.18700001 0.89800006 6318707
0.015000001 0.185 0.89200002 4608346
0.018000001 0.185 0.88900006 3884618
0.022000002 0.18400002 0.88500005 3160895
0.025 0.18300001 0.88200003 3029309
0.029000001 0.18200001 0.87600005 2568759
0.032000002 0.18200001 0.87400001 2437685
0.035 0.18100001 0.87300003 2569270
0.039000001 0.18100001 0.87200004 2502707
0.042000003 0.18100001 0.87100005 2107693
0.046000004 0.18100001 0.87100005 3357245
0.049000002 0.18100001 0.87000006 3225916
0.053000003 0.18000001 0.86400002 2172717
0.056000002 0.17900001 0.85900003 1844265
0.059000004 0.178 0.85400003 2370355
0.062000003 0.177 0.85200006 2305072
0.066 0.177 0.85200006 2239024
0.069000006 0.178 0.85300004 2436400
0.073000006 0.178 0.85300004 2370351
0.076000005 0.177 0.85200006 2173486
0.079000004 0.17600001 0.84700006 2436401
0.082000002 0.17600001 0.84300005 2305327
0.085000001 0.17500001 0.84100002 2502451
0.089000002 0.17600001 0.84200007 2436399
0.092000008 0.17600001 0.84500003 2502193
0.0080000004 0.19600001 0.92400002 4410451
0.011000001 0.19500001 0.91900003 4212559
0.015000001 0.193 0.91100007 3489349
0.018000001 0.192 0.90400004 3423556
0.022000002 0.19100001 0.89900005 3423556
0.025 0.19000001 0.89400005 3620935
0.029000001 0.18800001 0.88700002 3686728
0.032000002 0.18700001 0.88400006 4081485
0.036000002 0.18700001 0.88200003 4213071
0.039000001 0.18700001 0.88000005 4081485
0.043000001 0.186 0.87800002 3686215
0.046000004 0.186 0.87700003 3818313
0.050000001 0.185 0.87400001 3094590
0.053000003 0.185 0.87000006 1975853
0.056000002 0.18400002 0.86800003 2370356
0.060000002 0.18300001 0.86400002 3028285
0.063000001 0.18300001 0.86300004 3686213
0.066 0.18300001 0.86300004 3620678
0.07 0.18400002 0.86500007 3554888
0.074000001 0.18400002 0.86500007 8949663
0.0040000002 0.20300001 0.93900007 5067356
0.0080000004 0.20200001 0.93500006 5067613
0.012 0.20100001 0.93100005 5132635
0.015000001 0.2 0.92600006 4409684
0.019000001 0.19900002 0.92100006 3817803
0.022000002 0.19800001 0.91600007 3488838
0.026000001 0.19600001 0.90900004 2896701
0.029000001 0.19500001 0.90100002 3883596
0.033 0.19400001 0.89700001 4738650
0.036000002 0.193 0.89500004 5396580
0.040000003 0.192 0.89000005 5462374
0.043000001 0.192 0.88600004 5988206
0.047000002 0.19100001 0.88200003 7765129
0.050000001 0.18900001 0.87600005 7501958
0.053000003 0.18900001 0.87200004 7501960
0.056000002 0.18800001 0.87000006 7567494
0.060000002 0.18800001 0.86800003 7369601
0.063000001 0.18800001 0.86700004 9408926
0.067000002 0.18800001 0.86700004 16054267
0.07 0.18800001 0.86700004 10264749
0.074000001 0.18800001 0.86600006 7895946
0.077000007 0.18800001 0.86700004 8621728
0.081 0.18800001 0.86800003 10002611
0 0.208 0.94300002 6316398
0.0040000002 0.208 0.94300002 6513777
0.0080000004 0.20700002 0.94100004 6645363
0.012 0.20700002 0.93800002 6711412
0.015000001 0.20600002 0.93600005 6711415
0.019000001 0.20600002 0.93400002 6645622
0.023000002 0.20500001 0.92900002 6973817
0.026000001 0.20300001 0.92300004 7105401
0.030000001 0.20100001 0.91400003 7105401
0.033 0.2 0.91000003 6710643
0.037 0.2 0.90700006 6843001
0.040000003 0.19900002 0.90100002 6843258
0.044000003 0.19700001 0.89500004 8159120
0.047000002 0.19500001 0.88500005 8224911
0.050000001 0.193 0.87600005 8290704
0.053000003 0.192 0.87100005 8290705
0.056000002 0.192 0.86900002 8224911
0.060000002 0.19100001 0.86600006 7962253
0.063000001 0.19100001 0.86600006 8882590
0.067000002 0.19100001 0.86500007 15593723
0.07 0.19100001 0.86400002 16448509
0.073000006 0.19000001 0.86200005 13684695
0.077000007 0.19100001 0.86300004 8290706
0.081 0.19100001 0.86500007 8620190
0.084000006 0.192 0.86700004 10660030
0.088000007 0.192 0.87000006 8028563
0 0.21100001 0.94100004 6843001
0.0040000002 0.21100001 0.94200003 6776695
0.0080000004 0.21100001 0.94100004 6973561
0.012 0.21100001 0.94100004 7105147
0.015000001 0.21100001 0.94100004 7499648
0.019000001 0.21100001 0.94000006 7236733
0.023000002 0.21000001 0.93700004 7236991
0.027000001 0.20900001 0.93100005 7236991
0.030000001 0.20700002 0.92000002 7302783
0.033 0.20500001 0.91400003 7631491
0.037 0.20500001 0.91100007 7236989
0.040000003 0.20300001 0.90500003 6842747
0.044000003 0.20200001 0.89800006 7961741
0.047000002 0.19900002 0.88400006 7961743
0.050000001 0.19600001 0.87400001 8159122
0.053000003 0.19500001 0.86900002 8422039
0.056000002 0.19400001 0.86500007 8685211
0.059000004 0.19400001 0.86200005 8751010
0.063000001 0.19400001 0.86100006 10330039
0.066 0.193 0.85800004 14409206
0.069000006 0.192 0.85500002 15395836
0.073000006 0.192 0.85400003 16514302
0.076000005 0.192 0.85500002 16053752
0.080000006 0.193 0.85600007 8158861
0.084000006 0.193 0.85900003 7829904
0.088000007 0.19400001 0.86200005 8290455
0.091000006 0.19500001 0.86500007 9542060
0.095000006 0.19600001 0.86900002 8028566
0.0040000002 0.21400002 0.93600005 6908023
0.0080000004 0.21400002 0.93600005 6973818
0.012 0.21400002 0.93600005 6447474
0.015000001 0.21400002 0.93600005 7302784
0.019000001 0.21400002 0.93600005 7302784
0.023000002 0.21400002 0.93500006 7368577
0.027000001 0.21300001 0.93000007 7302782
0.030000001 0.21000001 0.91900003 7303296
0.033 0.20900001 0.91200006 8421778
0.037 0.208 0.91100007 7500163
0.041000001 0.208 0.90900004 7039612
0.044000003 0.20700002 0.90500003 7697029
0.047000002 0.20400001 0.89100003 7829385
0.050000001 0.20100001 0.87900007 7829642
0.053000003 0.19900002 0.87000006 8093074
0.056000002 0.19800001 0.86400002 8751006
0.059000004 0.19600001 0.85800004 9343401
0.063000001 0.19600001 0.85500002 9211305
0.066 0.19500001 0.85100001 10066616
0.069000006 0.19400001 0.84800005 13948655
0.072000004 0.19400001 0.84700006 15264251
0.076000005 0.19400001 0.84800005 16382205
0.079000004 0.19500001 0.85000002 16513789
0.083000004 0.19600001 0.85300004 9210275
0.087000005 0.19700001 0.85700005 8289176
0.091000006 0.19800001 0.86100006 8750493
0.095000006 0.19900002 0.86600006 8290455
0.099000007 0.2 0.87100005 8357529
0.0040000002 0.215 0.92500007 7170941
0.0080000004 0.21600001 0.92800003 7236477
0.012 0.21600001 0.92900002 7302525
0.015000001 0.21700001 0.93100005 7433598
0.019000001 0.21700001 0.93300003 7499648
0.023000002 0.21700001 0.93400002 7433856
0.027000001 0.21700001 0.93000007 7434369
0.030000001 0.21400002 0.91900003 7434113
0.033 0.21200001 0.91000003 8816023
0.037 0.21100001 0.90800005 7499649
0.041000001 0.21300001 0.91300005 7368063
0.044000003 0.21200001 0.91100007 7302271
0.048 0.21100001 0.90400004 7895179
0.051000003 0.20700002 0.88900006 7894923
0.054000001 0.20500001 0.87800002 8157840
0.057000004 0.20300001 0.86900002 8224150
0.060000002 0.20100001 0.86200005 8421785
0.063000001 0.2 0.85700005 8882593
0.066 0.19800001 0.85100001 8882341
0.069000006 0.19700001 0.84400004 8422043
0.072000004 0.19600001 0.84200007 9408421
0.075000003 0.19700001 0.84300005 9605806
0.079000004 0.19700001 0.84400004 10855355
0.083000004 0.19800001 0.84800005 10856128
0.087000005 0.19900002 0.85300004 11316422
0.091000006 0.2 0.85800004 11382471
0.095000006 0.20200001 0.86400002 9080484
0.099000007 0.20400001 0.87100005 9014687
0.104 0.20700002 0.88500005 8357271
0 0.21700001 0.91600007 7565954
0.0040000002 0.21600001 0.91200006 7697542
0.0080000004 0.21700001 0.91700006 7763335
0.011000001 0.21800001 0.92100006 7697542
0.015000001 0.22000001 0.92800003 7632265
0.019000001 0.22100002 0.93100005 7698057
0.023000002 0.22100002 0.93200004 7828874
0.027000001 0.22000001 0.92900002 7763081
0.030000001 0.21600001 0.91300005 7763081
0.033 0.21200001 0.89300007 9802663
0.036000002 0.21000001 0.88700002 8552853
0.040000003 0.21200001 0.89600003 8684184
0.044000003 0.21400002 0.90300006 8157839
0.048 0.215 0.90700006 8355220
0.052000001 0.21600001 0.91200006 8421014
0.055000003 0.21200001 0.89500004 8223635
0.058000002 0.21000001 0.88500005 8289428
0.060000002 0.20700002 0.87300003 8815518
0.063000001 0.20500001 0.86400002 9276069
0.066 0.20200001 0.85000002 9473448
0.069000006 0.20100001 0.84500003 9276069
0.072000004 0.2 0.84000003 9341862
0.075000003 0.2 0.84100002 9343144
0.079000004 0.2 0.84200007 9408680
0.083000004 0.20100001 0.84500003 9211044
0.086000003 0.20200001 0.85000002 8947872
0.091000006 0.20400001 0.85600007 9277093
0.095000006 0.20500001 0.86300004 8027281
0.1 0.208 0.87500006 9474729
0.10600001 0.21400002 0.89700001 9013916
-0.019000001 0.23600002 0.97800004 10328999
0 0.21800001 0.90400004 7764103
0.0040000002 0.21800001 0.90400004 7763592
0.0080000004 0.21900001 0.90700006 7632518
0.011000001 0.22000001 0.91400003 7632262
0.015000001 0.223 0.92400002 7632517
0.019000001 0.22400001 0.93000007 7632517
0.023000002 0.22500001 0.93300003 7763849
0.027000001 0.22400001 0.93000007 7763849
0.030000001 0.22000001 0.91300005 8027276
0.033 0.21300001 0.88500005 10198445
0.036000002 0.21200001 0.87900007 12369103
0.040000003 0.21400002 0.88700002 13289945
0.044000003 0.21700001 0.90000004 12368841
0.048 0.22000001 0.91300005 12302796
0.052000001 0.22200002 0.92000002 12369104
0.055000003 0.21900001 0.90600002 10198194
0.058000002 0.21600001 0.89300007 9737644
0.061000004 0.21300001 0.88000005 9672364
0.063000001 0.20900001 0.86500007 10330037
0.066 0.20500001 0.85000002 11646409
0.069000006 0.20400001 0.84400004 15527679
0.072000004 0.20300001 0.83900005 14080749
0.075000003 0.20300001 0.83800006 10198452
0.079000004 0.20300001 0.84000003 10001072
0.082000002 0.20400001 0.84300005 9013921
0.086000003 0.20500001 0.84700006 8554139
0.090000004 0.20600002 0.85300004 9210787
0.095000006 0.20900001 0.86200005 7369349
0.10200001 0.21700001 0.89400005 7369606
0.108 0.22200002 0.91800004 7171196
0.115 0.22900002 0.94400007 3092035
-0.028000001 0.24200001 0.98700005 11513523
-0.024 0.24100001 0.98400003 10658476
-0.020000001 0.24100001 0.98200005 9276313
-0.016000001 0.24000001 0.97800004 16447743
0.0040000002 0.22100002 0.90100002 9606305
0.0080000004 0.22200002 0.90300006 8619410
0.011000001 0.22400001 0.91100007 8948375
0.015000001 0.22700001 0.92600006 9210777
0.019000001 0.22900002 0.93200004 8026503
0.023000002 0.22900002 0.93400002 7764103
0.027000001 0.22800002 0.93000007 7566724
0.030000001 0.22400001 0.91400003 7895687
0.033 0.21700001 0.88500005 9672098
0.036000002 0.215 0.87500006 10855609
0.044000003 0.21900001 0.89100003 9473952
0.049000002 0.22500001 0.91600007 8026507
0.053000003 0.22800002 0.92700005 10263215
0.056000002 0.22700001 0.92300004 10263986
0.064000003 0.21600001 0.87700003 9737387
0.066 0.20900001 0.85200006 9671850
0.069000006 0.208 0.84500003 9737900
0.072000004 0.20600002 0.83800006 9408936
0.075000003 0.20600002 0.83800006 9474471
0.079000004 0.20600002 0.83900005 9408678
0.082000002 0.20700002 0.84200007 9277091
0.086000003 0.208 0.84500003 9014176
0.090000004 0.21000001 0.85200006 8948123
0.095000006 0.21300001 0.86300004 6579830
0.10300001 0.223 0.90500003 5921896
0.11100001 0.23100001 0.93900007 7237246
0.11700001 0.23600002 0.95700002 4737373
-0.028000001 0.24600001 0.98600006 6118761
-0.024 0.24600001 0.98400003 5724518
-0.020000001 0.245 0.98200005 6710645
-0.016000001 0.24400002 0.97900003 6118763
0.0080000004 0.22700001 0.90800005 6118506
0.011000001 0.22900002 0.91600007 6052713
0.015000001 0.23200001 0.92900002 5262940
0.019000001 0.23300001 0.93300003 5263452
0.023000002 0.23300001 0.93500006 6381933
0.027000001 0.23200001 0.93100005 6974070
0.030000001 0.22900002 0.91600007 6250863
0.033 0.22100002 0.88700002 8685464
0.036000002 0.21900001 0.87800002 10395571
0.040000003 0.22000001 0.88000005 10000558
0.044000003 0.22400001 0.89800006 5789796
0.049000002 0.23 0.91900003 5658725
0.053000003 0.23200001 0.93000007 8223884
0.057000004 0.23300001 0.93200004 9868458
0.065000005 0.22200002 0.88900006 9605288
0.066 0.21400002 0.85700005 9539495
0.069000006 0.21200001 0.84700006 9605287
0.072000004 0.21000001 0.83800006 9671081
0.075000003 0.20900001 0.83700001 9474215
0.079000004 0.21000001 0.83800006 9474215
0.082000002 0.21100001 0.84100002 9802665
0.086000003 0.21200001 0.84500003 9407907
0.090000004 0.21300001 0.85200006 7500162
0.096000001 0.21800001 0.87000006 6119274
0.105 0.23 0.91900003 5001308
0.11400001 0.24100001 0.96000004 6447990
0.119 0.24400002 0.97300005 3684944
-0.028000001 0.25 0.98400003 5789794
-0.024 0.24900001 0.98200005 5263453
-0.020000001 0.24900001 0.98200005 5921897
0.0080000004 0.23400001 0.92200005 5526885
0.012 0.23500001 0.92700005 5592680
0.015000001 0.23700002 0.93300003 5131613
0.019000001 0.23700002 0.93400002 4737625
0.023000002 0.23700002 0.93300003 4737625
0.027000001 0.23600002 0.93000007 5000797
0.030000001 0.23200001 0.91400003 4474710
0.033 0.22500001 0.88600004 6843260
0.036000002 0.223 0.87900007 10593978
0.040000003 0.22500001 0.88500005 10067115
0.044000003 0.22900002 0.90100002 5199201
0.049000002 0.23400001 0.92000002 4672597
0.053000003 0.23700002 0.93400002 4672343
0.057000004 0.23900001 0.93900007 5593447
0.061000004 0.23700002 0.93300003 5461606
0.064000003 0.23500001 0.92500007 5987951
0.067000002 0.23100001 0.90800005 6646651
0.067000002 0.22100002 0.86800003 5988467
0.07 0.21700001 0.85300004 5988980
0.072000004 0.21300001 0.83900005 7896978
0.075000003 0.21300001 0.83800006 9145764
0.079000004 0.21400002 0.83900005 9211044
0.082000002 0.21400002 0.84100002 9276837
0.086000003 0.215 0.84500003 9474216
0.090000004 0.21700001 0.85300004 5657957
0.096000001 0.22100002 0.86700004 4737875
0.10600001 0.23700002 0.93100005 5725028
0.116 0.24900001 0.97800004 6119789
0.12100001 0.252 0.98800004 3422803
-0.027000001 0.25300002 0.97900003 9342361
-0.023000002 0.252 0.97600007 4671831
-0.020000001 0.252 0.97700006 5856106
0.012 0.23900001 0.92800003 5789802
0.015000001 0.24100001 0.93300003 6184817
0.019000001 0.24000001 0.93200004 4606298
0.023000002 0.24000001 0.93100005 5593193
0.027000001 0.23900001 0.92800003 6777979
0.030000001 0.23600002 0.91500002 6712186
0.033 0.23100001 0.89400005 8291476
0.036000002 0.23 0.89100003 10133427
0.040000003 0.23200001 0.89700001 9673387
0.045000002 0.23500001 0.90900004 4344918
0.049000002 0.23900001 0.92600006 4805725
0.054000001 0.24300002 0.94000006 6778999
0.058000002 0.24400002 0.94500005 7567242
0.061000004 0.24300002 0.94100004 7501450
0.065000005 0.24100001 0.93400002 7501192
0.067000002 0.23700002 0.91700006 7633035
0.069000006 0.23 0.88900006 7764364
0.07 0.22200002 0.85900003 7895437
0.072000004 0.21800001 0.84200007 7895950
0.075000003 0.21700001 0.83900005 8027536
0.079000004 0.21700001 0.83900005 7895950
0.082000002 0.21800001 0.84200007 5921647
0.087000005 0.22000001 0.84800005 7106177
0.092000008 0.223 0.86200005 3026233
-0.027000001 0.25500003 0.97100008 16250365
-0.023000002 0.25300002 0.96300006 12237000
-0.019000001 0.25100002 0.95700002 6250094
0.0080000004 0.24400002 0.93200004 5789543
0.012 0.24400002 0.93000007 5328992
0.015000001 0.24400002 0.93100005 4868444
0.019000001 0.24400002 0.93000007 5197408
0.023000002 0.24300002 0.92800003 6645622
0.027000001 0.24300002 0.92500007 8093324
0.030000001 0.24000001 0.91300005 7303551
0.033 0.23600002 0.90100002 8619158
0.037 0.23700002 0.90300006 10001328
0.041000001 0.23800001 0.90800005 9804717
0.045000002 0.24100001 0.91800004 4805213
0.049000002 0.24400002 0.92900002 4739415
0.054000001 0.24700001 0.94000006 6251373
0.058000002 0.24800001 0.94400007 6513782
0.062000003 0.24800001 0.94300002 6711162
0.065000005 0.24700001 0.94100004 6777467
0.069000006 0.24600001 0.93600005 7435141
0.072000004 0.24300002 0.92300004 6843262
0.073000006 0.23500001 0.89600003 6250869
0.074000001 0.22800002 0.86600006 6514296
0.077000007 0.22400001 0.85200006 5658986
0.080000006 0.22500001 0.85400003 6579829
0.083000004 0.22400001 0.85000002 5658725
-0.026000001 0.25100002 0.94200003 10394541
-0.022000002 0.24600001 0.92300004 9408158
0.0080000004 0.24800001 0.93200004 5855337
0.012 0.24800001 0.92900002 5921130
0.015000001 0.24700001 0.92800003 5790313
0.019000001 0.24700001 0.92700005 6644852
0.023000002 0.24700001 0.92500007 7236990
0.027000001 0.24600001 0.92200005 8750228
0.030000001 0.24300002 0.91200006 8750742
0.033 0.24000001 0.90100002 8684695
0.037 0.24100001 0.90300006 10264245
0.041000001 0.24200001 0.90900004 9869743
0.045000002 0.245 0.91800004 7633545
0.049000002 0.24700001 0.92700005 6975353
0.054000001 0.25 0.93700004 5659238
0.058000002 0.25100002 0.94200003 5001308
0.062000003 0.252 0.94300002 5001052
0.065000005 0.25100002 0.94200003 5264226
0.069000006 0.25100002 0.94000006 5922154
0.073000006 0.25 0.93500006 5527398
-0.025 0.24100001 0.89000005 10986677
-0.021000002 0.23900001 0.88200003 9342367
-0.018000001 0.23700002 0.87500006 4803416
-0.014 0.23700002 0.87700003 6447983
0.0080000004 0.25400001 0.93700004 6513523
0.012 0.25300002 0.93500006 6382194
0.015000001 0.252 0.93100005 5263967
0.019000001 0.25100002 0.92800003 5461346
0.023000002 0.25 0.92500007 6052714
0.027000001 0.25 0.92300004 5527141
0.030000001 0.24700001 0.91300005 6250610
0.033 0.24400002 0.90200007 7237765
0.037 0.245 0.90400004 10264247
0.041000001 0.24700001 0.91000003 9607343
0.045000002 0.24900001 0.91800004 6580601
0.049000002 0.25100002 0.92700005 5198432
0.054000001 0.25400001 0.93700004 5263969
0.058000002 0.25600001 0.94300002 5527398
0.062000003 0.25600001 0.94600004 5527398
0.066 0.257 0.94600004 5790313
0.07 0.257 0.94900006 7171712
0.074000001 0.25800002 0.95000005 6447988
-0.024 0.23700002 0.86000001 14078950
-0.021000002 0.23600002 0.85700005 9934249
-0.017000001 0.23600002 0.85700005 5197919
-0.014 0.23600002 0.85800004 5198173
-0.0070000002 0.25300002 0.92000002 6842485
-0.0040000002 0.264 0.96100003 6710898
0 0.264 0.96000004 6514034
0.0040000002 0.26200002 0.95400006 6645621
0.0080000004 0.259 0.94100004 7039608
0.012 0.259 0.94100004 6710645
0.016000001 0.25800002 0.93800002 5657955
0.019000001 0.25600001 0.93200004 5065818
0.023000002 0.25600001 0.92900002 5527139
0.027000001 0.25500003 0.92700005 5856106
0.030000001 0.25300002 0.91900003 5789284
0.034000002 0.25 0.90800005 6580346
0.037 0.25 0.90800005 10199737
0.041000001 0.252 0.91400003 9607858
0.045000002 0.25300002 0.92000002 8356499
0.049000002 0.25500003 0.92800003 5987691
0.054000001 0.25800002 0.93700004 5592675
0.058000002 0.26000002 0.94500005 6119019
0.062000003 0.26100001 0.94900006 6119278
0.066 0.26200002 0.95100003 5790313
0.07 0.26300001 0.95500004 6711415
0.101 0.26300001 0.95100003 6447725
-0.028000001 0.24600001 0.88000005 13025749
-0.024 0.23900001 0.85500002 10591411
-0.021000002 0.23900001 0.85700005 9604775
-0.017000001 0.23900001 0.85500002 14671343
-0.014 0.23900001 0.85600007 6710902
-0.010000001 0.24000001 0.86100006 7566723
-0.0070000002 0.26100001 0.93400002 6974585
-0.0040000002 0.26900002 0.96200007 6776438
0 0.27000001 0.96600002 6579826
0.0040000002 0.27000001 0.96700007 6316654
0.0080000004 0.26700002 0.95700002 6644850
0.012 0.26700002 0.95500004 6908277
0.016000001 0.26300001 0.94200003 7039863
0.019000001 0.26300001 0.94000006 5723747
0.023000002 0.26100001 0.93600005 5921897
0.027000001 0.26100001 0.93300003 6119276
0.030000001 0.25800002 0.92400002 5920869
0.034000002 0.25500003 0.91400003 5987953
0.037 0.25500003 0.91100007 10199737
0.041000001 0.25600001 0.91700006 9738672
0.045000002 0.25800002 0.92200005 9408929
0.050000001 0.26000002 0.93000007 6381937
0.054000001 0.26200002 0.93800002 5856106
0.058000002 0.26500002 0.94600004 6776436
0.062000003 0.266 0.95000005 6448243
0.066 0.266 0.95200002 6382450
0.07 0.26700002 0.95600003 7302782
0.097000003 0.264 0.94300002 1973800
0.1 0.26300001 0.93900007 1645603
0.10300001 0.26200002 0.93500006 5987425
0.10700001 0.26100001 0.93100005 6250596
0.11100001 0.26200002 0.93200004 6579053
0.115 0.26200002 0.93500006 6448494
-0.028000001 0.24700001 0.87200004 11315646
-0.024 0.24200001 0.85300004 9670566
-0.021000002 0.24200001 0.85400003 8749466
-0.017000001 0.24200001 0.85400003 10065329
-0.014 0.24300002 0.85600007 13882092
-0.010000001 0.24600001 0.86600006 7500940
-0.0070000002 0.26700002 0.94000006 7236989
-0.0040000002 0.27500001 0.96800005 6776691
0 0.27600002 0.97200006 6908275
0.0040000002 0.27500001 0.97100008 6710896
0.0080000004 0.27400002 0.96500003 6711412
0.012 0.273 0.96200007 6645874
0.016000001 0.27100003 0.95400006 6645105
0.020000001 0.27000001 0.95100003 7105914
0.023000002 0.26800001 0.94600004 5855847
0.027000001 0.26700002 0.94300002 6250349
0.031000001 0.26500002 0.93300003 6052713
0.034000002 0.26100001 0.92000002 6711161
0.038000003 0.26000002 0.91500002 10659771
0.042000003 0.26100001 0.92000002 9870775
0.046000004 0.26300001 0.92800003 9277088
0.050000001 0.26700002 0.93900007 6579575
0.054000001 0.26800001 0.94500005 6711415
0.058000002 0.27000001 0.95000005 7697540
0.063000001 0.27100003 0.95300007 7171712
0.066 0.27100003 0.95400006 7500677
0.07 0.27100003 0.95500004 8093327
0.096000001 0.26700002 0.93800002 10658474
0.1 0.266 0.93500006 10856110
0.10300001 0.26500002 0.93100005 9146004
0.10600001 0.264 0.92700005 10659242
0.11000001 0.264 0.92800003 10790060
0.11400001 0.264 0.92700005 6776687
-0.028000001 0.25100002 0.87000006 9933991
-0.024 0.24600001 0.85300004 7105149
-0.021000002 0.24600001 0.85400003 6513014
-0.017000001 0.24600001 0.85500002 6381428
-0.014 0.24700001 0.85900003 8882335
-0.0070000002 0.27100003 0.94300002 6776954
-0.0040000002 0.28 0.97200006 6316399
0 0.28200001 0.97900003 6578797
0.0040000002 0.28100002 0.97600007 6842229
0.0080000004 0.27800003 0.96700007 6645105
0.012 0.27800003 0.96400005 7171966
0.016000001 0.27600002 0.95900005 6711412
0.020000001 0.27500001 0.95600003 6973815
0.024 0.27400002 0.95100003 7171709
0.027000001 0.273 0.94900006 6382193
0.031000001 0.27100003 0.94000006 6316655
0.034000002 0.266 0.92500007 7237759
0.038000003 0.264 0.91700006 10528698
0.042000003 0.266 0.92200005 9871029
0.046000004 0.27000001 0.93700004 9079709
0.050000001 0.27100003 0.94200003 6974333
0.054000001 0.273 0.94600004 7303298
0.058000002 0.27400002 0.94900006 7828873
0.062000003 0.27400002 0.95000005 7763077
0.066 0.27500001 0.95200002 7829642
0.07 0.27500001 0.95200002 8224401
0.075000003 0.27700001 0.95900005 7633290
0.096000001 0.27100003 0.93700004 3223608
0.1 0.27000001 0.93400002 3289655
0.10300001 0.26900002 0.93000007 10461095
0.10600001 0.26800001 0.92600006 10921900
0.11000001 0.26800001 0.92500007 10856107
0.11400001 0.26700002 0.92300004 7237238
-0.032000002 0.25300002 0.86700004 13420757
-0.028000001 0.25300002 0.86600006 8750481
-0.024 0.24900001 0.85100001 6052968
-0.021000002 0.24900001 0.85200006 9868449
-0.017000001 0.25 0.85600007 9013140
-0.014 0.25400001 0.86800003 8223882
-0.0070000002 0.27900001 0.95500004 6644339
-0.0040000002 0.28500003 0.97600007 6709874
0 0.287 0.98100007 5657440
0.0040000002 0.28500003 0.97600007 6710385
0.0080000004 0.28200001 0.96600002 7039097
0.012 0.28100002 0.96300006 7236987
0.016000001 0.28100002 0.96100003 7434368
0.020000001 0.28 0.95800006 6842231
0.024 0.27900001 0.95500004 8552847
0.028000001 0.27800003 0.95200002 7631745
0.031000001 0.27600002 0.94300002 7171453
0.034000002 0.27100003 0.92800003 7303811
0.038000003 0.26800001 0.91800004 10660284
0.042000003 0.27000001 0.92300004 9806004
0.046000004 0.27400002 0.93700004 9803432
0.050000001 0.27600002 0.94200003 7237762
0.054000001 0.27600002 0.94500005 7303298
0.058000002 0.27700001 0.94800007 7895435
0.062000003 0.27800003 0.94900006 7763851
0.066 0.27800003 0.95100003 7895435
0.07 0.27900001 0.95200002 8093070
0.075000003 0.28 0.95800006 7632263
0.096000001 0.27400002 0.93600005 11052975
0.1 0.27400002 0.93300003 8026497
0.10300001 0.273 0.92900002 10658217
0.10600001 0.27100003 0.92400002 11052975
0.11000001 0.27100003 0.92400002 10987439
0.11400001 0.27100003 0.92200005 7303032
-0.032000002 0.257 0.86500007 12631752
-0.028000001 0.257 0.86700004 7697275
-0.025 0.257 0.86700004 7565434
-0.021000002 0.26000002 0.87600005 11973567
-0.018000001 0.26300001 0.88700002 9736864
-0.015000001 0.26900002 0.90800005 6841972
-0.011000001 0.27800003 0.93900007 7170936
-0.0080000004 0.28600001 0.96600002 5986149
0 0.289 0.97600007 6183786
0.0040000002 0.28800002 0.97200006 6775923
0.0080000004 0.28600001 0.96500003 7105144
0.012 0.28600001 0.96300006 7039097
0.016000001 0.28500003 0.96000004 7434111
0.020000001 0.28400001 0.95600003 7039351
0.024 0.28300002 0.95400006 6775924
0.028000001 0.28200001 0.95200002 7170937
0.031000001 0.28 0.94500005 6053738
0.034000002 0.27600002 0.93000007 6974844
0.038000003 0.27200001 0.91800004 10791869
0.042000003 0.27400002 0.92500007 9936822
0.046000004 0.27800003 0.93800002 10134704
0.050000001 0.28 0.94200003 6910334
0.054000001 0.28 0.94400007 6186354
0.062000003 0.28100002 0.94800007 7565702
0.066 0.28200001 0.95000005 7697544
0.07 0.28200001 0.95100003 8027021
0.075000003 0.28400001 0.95600003 7764107
0.079000004 0.28600001 0.96400005 7500679
0.089000002 0.29300001 0.98600006 7763331
0.093000002 0.27900001 0.93800002 11316405
0.096000001 0.27900001 0.93600005 11513527
0.1 0.27800003 0.93400002 5328729
0.10300001 0.27700001 0.92900002 7697275
0.10700001 0.27500001 0.92500007 11250097
0.11000001 0.27600002 0.92500007 11052720
0.11400001 0.27500001 0.92400002 7894657
-0.035 0.26200002 0.86900002 13355217
-0.031000001 0.26000002 0.86300004 11512243
-0.028000001 0.26000002 0.86300004 7368307
-0.024 0.26000002 0.86400002 9078672
-0.021000002 0.26000002 0.86400002 12434376
-0.018000001 0.26200002 0.87200004 9605537
-0.014 0.27100003 0.90100002 7302010
-0.011000001 0.28300002 0.94200003 7039350
-0.0080000004 0.29200003 0.96900004 6447212
-0.0040000002 0.29500002 0.97900003 6381162
0 0.29300001 0.97300005 7630974
0.0040000002 0.29200003 0.96900004 6052456
0.0080000004 0.29000002 0.96400005 7368316
0.012 0.29000002 0.96300006 6841973
0.016000001 0.289 0.96200007 7105401
0.020000001 0.28800002 0.95600003 7434367
0.024 0.287 0.95500004 6710388
0.028000001 0.287 0.95300007 7105402
0.031000001 0.28500003 0.94800007 6776438
0.035 0.28100002 0.93400002 6250866
0.038000003 0.27700001 0.92100006 10988736
0.042000003 0.27900001 0.92800003 9936309
0.046000004 0.28200001 0.93800002 10726333
0.050000001 0.28300002 0.94100004 6449782
0.054000001 0.28400001 0.94300002 6646389
0.058000002 0.28500003 0.94600004 7698055
0.062000003 0.28500003 0.94600004 8092814
0.066 0.28600001 0.95000005 7500677
0.07 0.287 0.95100003 8553108
0.075000003 0.28800002 0.95400006 8223884
0.079000004 0.29000002 0.96300006 7698056
0.085000001 0.296 0.98000002 7237246
0.091000006 0.289 0.95800006 10790064
0.093000002 0.28400001 0.94000006 11381945
0.096000001 0.28300002 0.93800002 11052979
0.1 0.28200001 0.93500006 8355208
0.10300001 0.28100002 0.93100005 8223621
0.10700001 0.28 0.92800003 11316148
0.11100001 0.28 0.92800003 11118514
0.115 0.28100002 0.92800003 7894657
-0.039000001 0.26500002 0.86900002 11841978
-0.035 0.26500002 0.86800003 14276319
-0.031000001 0.26100001 0.85500002 9735832
-0.028000001 0.26100001 0.85600007 7564917
-0.024 0.26100001 0.85500002 9868701
-0.0080000004 0.296 0.96900004 6578286
0 0.296 0.97000003 6907251
0.0040000002 0.29500002 0.96700007 7302269
0.0080000004 0.294 0.96400005 7697542
0.012 0.294 0.96400005 7961230
0.016000001 0.294 0.96200007 6382450
0.020000001 0.29100001 0.95400006 6513266
0.024 0.29100001 0.95200002 7434887
0.028000001 0.29000002 0.95100003 6974333
0.031000001 0.289 0.94800007 6645621
0.035 0.28600001 0.93700004 8224657
0.038000003 0.28200001 0.92400002 11185861
0.042000003 0.28400001 0.93100005 10264251
0.046000004 0.287 0.93900007 11054529
0.050000001 0.287 0.94000006 6976132
0.054000001 0.28800002 0.94200003 5727090
0.058000002 0.28800002 0.94400007 6383482
0.062000003 0.28800002 0.94400007 7106692
0.066 0.29000002 0.94800007 6975106
0.07 0.29000002 0.94900006 13027549
0.074000001 0.29100001 0.95100003 11448519
0.079000004 0.29200003 0.95600003 5659504
0.084000006 0.29700002 0.97100008 7567243
0.087000005 0.29500002 0.96400005 9277601
0.090000004 0.29200003 0.95400006 9343392
0.093000002 0.28800002 0.94200003 9869738
0.097000003 0.28800002 0.93900007 9672357
0.1 0.287 0.93600005 3619142
0.104 0.28600001 0.93200004 9737633
0.10700001 0.28500003 0.92900002 10592685
0.11100001 0.28500003 0.93100005 10790063
0.115 0.28600001 0.93100005 7697792
0.119 0.287 0.93400002 6579307
-0.035 0.26900002 0.86700004 14867690
-0.031000001 0.264 0.85400003 9209492
-0.024 0.264 0.85300004 10789549
-0.021000002 0.26300001 0.84900004 10921138
-0.014 0.27400002 0.88400006 8488080
0.0040000002 0.29800001 0.96200007 7039613
0.0080000004 0.29700002 0.96100003 7434886
0.012 0.29700002 0.96100003 7500936
0.016000001 0.29700002 0.96000004 7303301
0.020000001 0.294 0.95100003 7830674
0.024 0.294 0.95100003 8224660
0.028000001 0.294 0.95000005 8554400
0.031000001 0.294 0.94800007 7567249
0.035 0.29000002 0.93800002 9343660
0.038000003 0.287 0.92800003 9804723
0.042000003 0.289 0.93200004 8817828
0.046000004 0.29100001 0.93800002 9673394
0.050000001 0.29100001 0.94000006 7108750
0.062000003 0.29300001 0.94400007 8094105
0.066 0.294 0.94700003 7633554
0.07 0.294 0.94900006 9804210
0.074000001 0.29500002 0.95100003 9080742
0.079000004 0.29700002 0.95600003 9212587
0.083000004 0.29900002 0.96400005 9014693
0.087000005 0.29900002 0.96300006 9474728
0.091000006 0.29700002 0.95600003 10329778
0.093000002 0.29300001 0.94400007 10592434
0.097000003 0.29200003 0.94100004 6513268
0.101 0.29100001 0.93800002 3947339
0.104 0.29000002 0.93300003 9408158
0.108 0.29000002 0.93300003 10790068
0.112 0.29100001 0.93700004 9868709
0.11700001 0.294 0.94600004 6710898
0.12100001 0.29500002 0.94700003 6513517
-0.035 0.27200001 0.86700004 13881056
-0.031000001 0.26800001 0.85300004 10196387
-0.028000001 0.26800001 0.85300004 6446182
-0.021000002 0.266 0.84800005 10262951
-0.014 0.27700001 0.88100004 7829128
0.0040000002 0.30100003 0.96000004 7698056
0.016000001 0.29900002 0.95400006 8949416
0.020000001 0.29800001 0.94800007 9804471
0.024 0.29800001 0.94800007 8685987
0.028000001 0.29800001 0.94800007 8949162
0.031000001 0.29700002 0.94700003 6646923
0.035 0.29500002 0.93800002 8028319
0.038000003 0.29200003 0.93000007 9804985
0.042000003 0.29300001 0.93300003 9278641
0.046000004 0.29500002 0.93800002 9344435
0.050000001 0.29500002 0.93900007 10003391
0.054000001 0.296 0.94100004 7372441
0.062000003 0.296 0.94300002 8357025
0.066 0.29800001 0.94700003 9014953
0.07 0.29800001 0.94900006 9146795
0.074000001 0.29900002 0.95100003 9146280
0.079000004 0.30000001 0.95300007 8818087
0.083000004 0.30200002 0.96000004 8488863
0.091000006 0.30200002 0.95800006 9934504
0.094000004 0.29900002 0.94900006 8355472
0.097000003 0.29800001 0.94500005 3157566
0.101 0.296 0.94100004 4078666
0.119 0.30400002 0.96300006 6316141
0.12400001 0.30600002 0.97000003 6316137
-0.035 0.27600002 0.86600006 9077910
-0.031000001 0.27100003 0.85200006 7696251
-0.028000001 0.27100003 0.85200006 6445668
-0.024 0.27000001 0.84900004 7761785
-0.021000002 0.26900002 0.84500003 8091009
0.024 0.30100003 0.94500005 7435920
0.027000001 0.30100003 0.94600004 7829907
0.031000001 0.30100003 0.94600004 7370384
0.035 0.29900002 0.93900007 7567763
0.039000001 0.29700002 0.93200004 8883367
0.042000003 0.29700002 0.93400002 8422558
0.046000004 0.29900002 0.93800002 7831446
0.050000001 0.29900002 0.93800002 8225177
0.054000001 0.29900002 0.94000006 6974595
0.058000002 0.30000001 0.94200003 6580863
0.062000003 0.30100003 0.94300002 6315636
0.066 0.30200002 0.94800007 6513528
0.071000002 0.303 0.95100003 6578806
0.075000003 0.30400002 0.95400006 5921131
0.079000004 0.30500001 0.95700002 5656929
0.095000006 0.30500001 0.95500004 8158088
0.098000005 0.30400002 0.95100003 1973801
0.10200001 0.303 0.94700003 2697264
0.12200001 0.31400001 0.98200005 6250345
0.127 0.317 0.99200004 6447976
-0.035 0.28 0.86600006 7696767
-0.031000001 0.27400002 0.84900004 7301494
-0.028000001 0.27400002 0.84800005 6050911
-0.024 0.273 0.84600002 8813957
-0.012 0.31800002 0.98700005 5198427
-0.0080000004 0.32200003 0.99800003 8224901
0.023000002 0.303 0.93900007 7633042
0.027000001 0.30400002 0.94200003 5330283
0.031000001 0.30400002 0.94300002 7040904
0.035 0.303 0.93800002 7040904
0.039000001 0.30100003 0.93300003 7304077
0.042000003 0.30100003 0.93300003 7106699
0.046000004 0.30200002 0.93600005 6909318
0.050000001 0.303 0.93700004 7435147
0.054000001 0.303 0.93900007 8158608
0.058000002 0.30400002 0.94200003 8158348
0.062000003 0.30500001 0.94400007 6710137
0.067000002 0.30700001 0.95000005 6644343
0.071000002 0.30900002 0.95500004 6775926
0.075000003 0.31 0.95800006 5854564
0.095000006 0.31 0.95900005 5722205
0.098000005 0.30900002 0.95300007 4999253
0.10200001 0.30700001 0.94800007 5854817
0.123 0.32200003 0.99400002 6184552
-0.035 0.28400001 0.86700004 7302523
-0.031000001 0.28 0.85700005 6184041
-0.028000001 0.27900001 0.85400003 5196629
-0.024 0.27800003 0.84900004 8946058
-0.021000002 0.27700001 0.84700006 5789026
-0.016000001 0.317 0.97000003 7961478
-0.012 0.32700002 1 5922148
0.027000001 0.30800003 0.94000006 6185077
0.031000001 0.30900002 0.94300002 7435916
0.035 0.30800003 0.94100004 7041158
0.039000001 0.30600002 0.93400002 7501709
0.042000003 0.30500001 0.93200004 7238283
0.046000004 0.30500001 0.93300003 7238536
0.050000001 0.30600002 0.93500006 8027281
0.054000001 0.30700001 0.93800002 7237249
0.059000004 0.30900002 0.94500005 6841975
0.063000001 0.31100002 0.95000005 6710393
0.067000002 0.31300002 0.95600003 6381682
0.072000004 0.31600001 0.96500003 6644339
0.076000005 0.31800002 0.96900004 6118505
0.096000001 0.317 0.96500003 5525341
0.099000007 0.31400001 0.95600003 5920356
0.12400001 0.32700002 0.99600005 6184041
-0.036000002 0.289 0.87200004 6907765
-0.032000002 0.28500003 0.86000001 5657184
-0.028000001 0.28300002 0.85500002 4867920
-0.024 0.28100002 0.84800005 7894397
-0.016000001 0.32900003 0.99200004 8224651
0.027000001 0.31100002 0.93900007 7896464
0.031000001 0.31300002 0.94400007 5987951
0.039000001 0.31100002 0.93900007 7501455
0.043000001 0.31100002 0.93700004 7370122
0.047000002 0.31 0.93600005 7172745
0.050000001 0.31100002 0.93700004 8225171
0.055000003 0.31200001 0.94100004 7106175
0.059000004 0.31500003 0.95000005 6710904
0.063000001 0.31800002 0.95800006 6578550
0.068000004 0.32000002 0.96500003 6512757
0.072000004 0.32200003 0.97100008 6578548
0.077000007 0.324 0.97500002 5986411
0.081 0.324 0.97400004 4801359
0.096000001 0.32100001 0.96600002 5393498
0.099000007 0.31900001 0.95900005 5328217
0.12400001 0.33200002 0.99700004 6250347
-0.036000002 0.29300001 0.87100005 6710129
-0.028000001 0.287 0.85500002 6907760
-0.024 0.28500003 0.84800005 6907757
0.028000001 0.317 0.94500005 8225165
0.032000002 0.31900001 0.94900006 5659238
0.036000002 0.32000002 0.95100003 7435144
0.039000001 0.31800002 0.94700003 7764109
0.043000001 0.317 0.94300002 7830157
0.047000002 0.317 0.94300002 7369868
0.051000003 0.317 0.94400007 8883609
0.055000003 0.31800002 0.94500005 6119277
0.059000004 0.32000002 0.95300007 6909048
0.064000003 0.324 0.96300006 6446964
0.068000004 0.32700002 0.97100008 6381171
0.073000006 0.32800001 0.97400004 6249585
0.077000007 0.32900003 0.97700006 5328482
0.081 0.32900003 0.97700006 4736848
0.085000001 0.32800001 0.97500002 4736594
0.096000001 0.32700002 0.96900004 5789280
0.1 0.324 0.96200007 5855074
0.10300001 0.32200003 0.95400006 2697521
0.12400001 0.33600003 0.99500006 6118759
-0.036000002 0.296 0.87000006 6644592
-0.024 0.287 0.84200007 6381418
0.024 0.32300001 0.94800007 7764622
0.028000001 0.324 0.95100003 8158867
0.032000002 0.32500002 0.95400006 5856363
0.036000002 0.32500002 0.95600003 7501191
0.040000003 0.324 0.95100003 7501707
0.043000001 0.32200003 0.94700003 7435916
0.047000002 0.32300001 0.94700003 7304585
0.051000003 0.32300001 0.94800007 8291222
0.055000003 0.32300001 0.94800007 7238017
0.060000002 0.32600001 0.95700002 5987691
0.064000003 0.32900003 0.96600002 5789289
0.068000004 0.33100003 0.97200006 5855337
0.073000006 0.33200002 0.97400004 5855334
0.077000007 0.333 0.97600007 4342095
0.081 0.333 0.97600007 5395036
0.085000001 0.33200002 0.97400004 4868694
0.089000002 0.33200002 0.97200006 6579057
0.093000002 0.33100003 0.97100008 5329760
0.096000001 0.33000001 0.96800005 5394523
0.1 0.32900003 0.96200007 5723999
0.10300001 0.32700002 0.95700002 2434349
0.12400001 0.34100002 0.99600005 6711412
-0.024 0.29200003 0.84800005 5920867
0.024 0.32900003 0.95400006 7632776
0.028000001 0.32800001 0.95200002 8290195
0.032000002 0.32900003 0.95400006 5461605
0.036000002 0.33000001 0.95600003 7435398
0.040000003 0.32800001 0.95100003 7566984
0.043000001 0.32700002 0.94800007 7566730
0.047000002 0.32700002 0.94900006 7370121
0.051000003 0.32700002 0.94800007 8292500
0.055000003 0.32700002 0.94800007 3688015
0.059000004 0.33000001 0.95500004 6119785
0.064000003 0.333 0.96500003 5921897
0.068000004 0.33500001 0.97000003 5592931
0.073000006 0.33600003 0.97300005 5329758
0.077000007 0.33700001 0.97500002 5592413
0.081 0.33700001 0.97600007 5131864
0.085000001 0.33600003 0.97300005 5000793
0.089000002 0.33600003 0.97200006 6842998
0.093000002 0.33500001 0.97000003 5001308
0.096000001 0.33400002 0.96700007 5526109
0.1 0.333 0.96200007 5394777
0.10300001 0.33100003 0.95700002 4407882
0.123 0.34300002 0.99000007 8750995
-0.024 0.29700002 0.84900004 5723231
0.028000001 0.32900003 0.94300002 8027536
0.031000001 0.33000001 0.94400007 6909823
0.035 0.33100003 0.94700003 7567753
0.039000001 0.32900003 0.94300002 7304327
0.043000001 0.32900003 0.94200003 7567500
0.047000002 0.33000001 0.94400007 7500937
0.051000003 0.33000001 0.94400007 8029331
0.055000003 0.33000001 0.94400007 2965318
0.059000004 0.333 0.95100003 6120555
0.064000003 0.33600003 0.96100003 5658723
0.068000004 0.33900002 0.96800005 5724003
0.073000006 0.34 0.97100008 6052966
0.077000007 0.34 0.97300005 7895170
0.081 0.34100002 0.97400004 5066071
0.085000001 0.34 0.97200006 5395036
0.089000002 0.34 0.97100008 6777205
0.093000002 0.34 0.97000003 5395552
0.096000001 0.33900002 0.96700007 5657696
0.1 0.33700001 0.96100003 5789281
0.12400001 0.34800002 0.99100006 5461599
0.028000001 0.33400002 0.94300002 7502220
0.031000001 0.33200002 0.93800002 5462377
0.035 0.33200002 0.93900007 7699339
0.039000001 0.33200002 0.93700004 7106948
0.043000001 0.33100003 0.93600005 7698571
0.047000002 0.33200002 0.93900007 7435144
0.051000003 0.33200002 0.93800002 7766670
0.054000001 0.33100003 0.93600005 5921897
0.059000004 0.333 0.94100004 6316138
0.063000001 0.33700001 0.95100003 6118503
0.068000004 0.34 0.95900005 6184039
0.072000004 0.34200001 0.96600002 10460068
0.077000007 0.34400001 0.97100008 6446952
0.081 0.34500003 0.97300005 4341578
0.085000001 0.34500003 0.97200006 5328734
0.089000002 0.34400001 0.97100008 7369343
0.093000002 0.34400001 0.97000003 5593185
0.097000003 0.34300002 0.96700007 5591904
0.099000007 0.34 0.95700002 5723490
-0.025 0.31100002 0.86800003 6445923
0.031000001 0.33400002 0.93200004 6185846
0.035 0.33400002 0.93200004 8028051
0.039000001 0.333 0.93000007 7172742
0.043000001 0.33400002 0.93200004 7698318
0.047000002 0.33500001 0.93600005 7500680
0.051000003 0.33500001 0.93400002 7567753
0.054000001 0.33400002 0.93200004 6381421
0.058000002 0.33600003 0.93700004 6051942
0.063000001 0.34 0.94800007 6117221
0.068000004 0.34300002 0.95600003 6051426
0.072000004 0.34500003 0.96200007 6511464
0.077000007 0.347 0.96800005 6314084
0.081 0.34900001 0.97100008 6249063
0.085000001 0.34800002 0.97000003 5986409
0.089000002 0.34800002 0.97000003 7565952
0.093000002 0.34800002 0.97000003 5921123
0.096000001 0.347 0.96500003 5723232
0.099000007 0.34300002 0.95500004 3552319
-0.025 0.317 0.87500006 5919837
0.031000001 0.33700001 0.92800003 7370120
0.035 0.33700001 0.92800003 7633293
0.039000001 0.33600003 0.92600006 7566986
0.043000001 0.33700001 0.92800003 7895695
0.047000002 0.33900002 0.93300003 7501965
0.050000001 0.33800003 0.93100005 7633293
0.054000001 0.33800003 0.93100005 7894147
0.058000002 0.33800003 0.93200004 5984089
0.063000001 0.34100002 0.93900007 6181212
0.067000002 0.34600002 0.95200002 6180955
0.072000004 0.35000002 0.96200007 6180695
0.077000007 0.35200003 0.96900004 6443611
0.081 0.354 0.97300005 6575972
0.085000001 0.354 0.97400004 7169907
0.089000002 0.354 0.97300005 7368571
0.093000002 0.354 0.97200006 6051941
0.097000003 0.35200003 0.96700007 6050913
0.1 0.34800002 0.95600003 5722459
0.125 0.36400002 0.99800003 4737882
-0.029000001 0.32500002 0.88500005 5853785
-0.025 0.32200003 0.87700003 6775658
0.031000001 0.34 0.92700005 8949412
0.035 0.34 0.92500007 8028051
0.039000001 0.34 0.92500007 7699088
0.042000003 0.33900002 0.92400002 8290453
0.047000002 0.34200001 0.93000007 7699086
0.050000001 0.34100002 0.92900002 8093074
0.054000001 0.34200001 0.93000007 8487054
0.058000002 0.34300002 0.93400002 5786965
0.063000001 0.347 0.94300002 5918038
0.067000002 0.35000002 0.95200002 6180694
0.072000004 0.354 0.96300006 6049366
0.077000007 0.35600001 0.96700007 6246230
0.081 0.35800001 0.97200006 6181719
0.085000001 0.35800001 0.97300005 7564663
0.089000002 0.35900003 0.97400004 7368831
0.093000002 0.35800001 0.97200006 6116960
0.097000003 0.35600001 0.96700007 6117214
-0.029000001 0.32900003 0.88600004 5263190
-0.025 0.32500002 0.87500006 5657434
0.031000001 0.34600002 0.93100005 9213362
0.035 0.34500003 0.92800003 7896724
0.039000001 0.34400001 0.92600006 8159898
0.043000001 0.34400001 0.92500007 8686239
0.047000002 0.34600002 0.93000007 8093332
0.050000001 0.34600002 0.92900002 8356248
0.054000001 0.34600002 0.93000007 9408926
0.059000004 0.34800002 0.93500006 5062987
0.063000001 0.35200003 0.94600004 5128521
0.068000004 0.354 0.95200002 5194315
0.072000004 0.35800001 0.96200007 5654866
0.077000007 0.36100003 0.96900004 5654612
0.089000002 0.36300001 0.97300005 7565954
0.093000002 0.36300001 0.97300005 6247518
0.125 0.37200001 0.99700004 3750988
-0.022000002 0.333 0.88600004 6446950
-0.019000001 0.34100002 0.90500003 6118243
-0.016000001 0.37200001 0.98800004 5856357
0.032000002 0.35300002 0.93900007 8883368
0.035 0.35000002 0.93100005 8356766
0.039000001 0.34900001 0.92600006 9278640
0.043000001 0.34800002 0.92400002 9212588
0.047000002 0.34900001 0.92800003 8224920
0.050000001 0.35000002 0.92900002 8357016
0.055000003 0.35100001 0.93200004 9803435
0.059000004 0.35300002 0.93800002 3946816
0.063000001 0.35700002 0.94700003 4339776
0.068000004 0.36000001 0.95500004 4602432
0.072000004 0.36300001 0.96400005 4930373
0.077000007 0.36500001 0.96700007 4733766
0.081 0.36500001 0.96800005 4732994
0.085000001 0.36500001 0.96800005 7038840
0.125 0.377 0.99600005 2763580
-0.022000002 0.33600003 0.88300002 5986660
-0.016000001 0.37500003 0.98400003 5657956
-0.012 0.37900001 0.99500006 4671306
0.031000001 0.35700002 0.93800002 8027799
0.035 0.35500002 0.93100005 8554915
0.039000001 0.35300002 0.92600006 6581125
