# .PCD v0.7 - Point Cloud Data file format
VERSION 0.7
FIELDS x y z rgb
SIZE 4 4 4 4
TYPE F F F U
COUNT 1 1 1 1
WIDTH 1170
HEIGHT 1
VIEWPOINT 0 0 0 1 0 0 0
POINTS 1170
DATA ascii
-0.096000008 0.05450001 0.75116676 6899252
-0.085500002 0.054499999 0.75262499 6899252
-0.07500001 0.054500002 0.75391674 6833460
-0.066000007 0.054500002 0.75541669 6767924
-0.055500004 0.054500006 0.75668752 6833205
-0.044999998 0.054500002 0.75749999 6898999
-0.0363 0.053600006 0.75829995 6833206
-0.026142856 0.051285718 0.75900012 6767412
-0.018000001 0.050000001 0.75900006 6965304
-0.123 0.068000004 0.75000006 6504493
-0.11433334 0.065666668 0.75033337 6570029
-0.105 0.065000005 0.75111109 6569772
-0.096000001 0.065000005 0.75188887 6635564
-0.085500002 0.064999998 0.75375003 6635566
-0.075000003 0.064999998 0.75522226 6701617
-0.066000007 0.065000005 0.75700003 6898997
-0.055500001 0.064999998 0.75799996 6899252
-0.046 0.064000003 0.75883341 6964790
-0.039000001 0.062000003 0.75900006 6768183
-0.125 0.07500001 0.75000006 6504493
-0.1155 0.074000008 0.75133342 6635822
-0.105 0.074000008 0.75266671 6635566
-0.096000008 0.074000001 0.75333333 6570028
-0.085500002 0.074000001 0.75491667 6701358
-0.07500001 0.07433334 0.75677776 6767409
-0.066000007 0.074444443 0.75811112 6964790
-0.056625001 0.0735 0.75887507 6899509
-0.13300002 0.083000004 0.75000006 6570029
-0.12471429 0.083571434 0.75099999 6570029
-0.11581819 0.083090916 0.75236374 6701359
-0.10588888 0.083666667 0.75411111 6635566
-0.09572728 0.084090911 0.7553637 6635566
-0.085199997 0.0836 0.75660002 6635823
-0.075444445 0.084000006 0.75788885 6899253
-0.067333333 0.083000004 0.75900006 6964790
-0.13385715 0.094928578 0.7507143 6569774
-0.12400001 0.094500013 0.75258332 6635566
-0.11500001 0.094499998 0.75400001 6701358
-0.10600001 0.094500005 0.75500011 6701359
-0.0955 0.094500013 0.75637519 6635566
-0.085000008 0.094500005 0.75808334 6635822
-0.076300003 0.093600012 0.75880009 6898995
-0.07 0.090000004 0.75900006 7030583
-0.15350001 0.108 0.75000006 6635825
-0.14466667 0.10600001 0.75000006 6570032
-0.13450001 0.10500001 0.75141662 6635825
-0.12400001 0.105 0.75333333 6701616
-0.11499999 0.105 0.75466669 6767408
-0.106 0.105 0.75611115 6767408
-0.0955 0.10500001 0.75766665 6767152
-0.085375004 0.10475 0.75887501 6701360
-0.15366668 0.11466667 0.75150007 6701874
-0.14555556 0.114 0.75000006 6767667
-0.13500001 0.11400002 0.75183338 6899253
-0.12455556 0.11444446 0.75422227 7096375
-0.11533333 0.11466667 0.75566673 7162168
-0.10600001 0.11455557 0.75644445 7293498
-0.095499992 0.11491668 0.75833327 7293497
-0.086800002 0.11439999 0.75900006 7293498
-0.15433334 0.12433333 0.75383335 6701617
-0.14600001 0.12377778 0.75066668 6702130
-0.1355 0.12391666 0.75266671 6899509
-0.125 0.12399999 0.75477785 7162166
-0.1149091 0.12427273 0.7561819 7293497
-0.105125 0.124 0.75725001 7359290
-0.096222229 0.12333333 0.75866669 7293753
-0.088000007 0.12100001 0.75900006 7227962
-0.1925 0.13600001 0.75300002 9991266
-0.15428571 0.13428572 0.75314289 6570289
-0.14600001 0.13450001 0.75099999 6702131
-0.13550001 0.1345 0.75325006 7030581
-0.125 0.1337 0.75540006 7227702
-0.11450001 0.13300002 0.75650001 7359288
-0.104 0.13322222 0.75788885 7359289
-0.096500009 0.13333334 0.75900006 7359289
-0.18850002 0.1455 0.75350004 6765093
-0.16000001 0.1455 0.75600004 6503982
-0.15542857 0.14485715 0.7514286 6636082
-0.14514287 0.14457144 0.75028574 6767668
-0.13550001 0.14566667 0.75283337 7096118
-0.125 0.1448182 0.75509095 7293495
-0.11450001 0.14450002 0.75662506 7425080
-0.104 0.1445 0.75791669 7490874
-0.095600009 0.14510001 0.75879997 7425081
-0.18400002 0.15200001 0.75400007 6109740
-0.17600001 0.15300001 0.7536667 7294010
-0.16500001 0.15200001 0.75375003 9003342
-0.15900001 0.15200001 0.75000006 6439218
-0.14300001 0.15100001 0.75000006 6439216
-0.13437501 0.153625 0.75137502 7294010
-0.125 0.155 0.75311118 7688510
-0.11450002 0.15499999 0.75475001 7359288
-0.104 0.155 0.75611115 7490617
-0.095000006 0.155 0.75755554 7556411
-0.087000005 0.156 0.75883341 7819840
-0.11400001 0.16000001 0.75050008 8346442
-0.10633334 0.16033335 0.75200003 8149064
-0.095142856 0.16185716 0.75300008 8280392
-0.085000001 0.16216667 0.75499994 8017222
-0.075625002 0.16337501 0.7552501 7688769
-0.065499999 0.16500001 0.755 8083529
-0.054714289 0.1667143 0.75514287 7952201
-0.044714283 0.16785716 0.75557142 8017738
-0.036249999 0.16800001 0.75650001 7886409
-0.033 0.17 0.75500005 8017480
-0.024500003 0.1705 0.75433332 8017480
-0.015000001 0.171 0.75550002 7886406
-0.0067500002 0.17175001 0.75525004 7886406
0.0055 0.17366667 0.75516671 7886148
0.01475 0.17475 0.75450003 7886148
0.025 0.17633335 0.75700003 7425600
0.034000002 0.17866667 0.75266671 6768185
0.040000003 0.17900001 0.75600004 6571061
0.046000004 0.18000001 0.75700003 6702392
0.05566667 0.18000001 0.75866669 7097407
0.067000002 0.18100001 0.75000006 7558474
0.073666669 0.182 0.75300002 7426888
0.083000004 0.182 0.75166672 7361351
0.10700001 0.18200001 0.75000006 7229505
0.11366668 0.18266667 0.75200003 7295298
0.123 0.18333335 0.75400001 7361349
0.13450001 0.18400002 0.75525004 7229763
0.14600001 0.185 0.75700003 7230018
0.15566666 0.185 0.75766665 7098435
0.16533335 0.186 0.75800008 7230277
0.17500001 0.186 0.75766677 7230532
0.18400002 0.186 0.75633335 7164742
0.19400001 0.186 0.75500005 7098948
0.2045 0.18574999 0.75225002 6967877
0.22800002 0.185 0.75900006 6968907
0.23333335 0.185 0.75600004 7034702
0.24450001 0.185 0.75325006 7101009
0.25350001 0.18450001 0.75100005 7101008
0.26900002 0.185 0.75000006 7232340
0.27450001 0.186 0.75150001 7035473
0.2845 0.18575001 0.75300002 6704701
0.29425001 0.1825 0.75375009 7099975
-0.14399999 0.0065000001 0.76350003 8812662
-0.13100001 0.011000001 0.76100004 9663851
-0.12900001 0.011000001 0.76700002 9993329
-0.1145 0.014 0.76350009 8939098
-0.095500007 0.017000001 0.76100004 8609105
-0.085000001 0.017000001 0.76533335 9003604
-0.15900001 0.026000001 0.76000005 2428941
-0.082000002 0.020000001 0.76000005 8740177
-0.075000003 0.020750003 0.76200002 8871760
-0.067500003 0.022250002 0.76499999 8739662
-0.056000002 0.026000001 0.76375002 8674636
-0.045333337 0.026000001 0.76733333 8674638
-0.036750004 0.028250001 0.76275003 8608844
-0.025500001 0.029000001 0.76425004 8543565
-0.015000001 0.029000001 0.76800007 8411979
-0.16233332 0.036000002 0.76133341 3020565
-0.15900001 0.035999998 0.76000005 2954770
-0.024000002 0.032000002 0.76033336 8543565
-0.014250001 0.032750003 0.76100004 8477773
-0.0055714282 0.034142859 0.76142865 8280395
0.0044999998 0.034999996 0.76283336 8017224
0.014571429 0.035857141 0.76428574 8017483
0.024833335 0.036499999 0.76550007 7952203
0.03325 0.037500001 0.76675004 7952717
0.043000001 0.039000001 0.76833338 7952717
-0.16500001 0.046 0.76316667 3744286
-0.012 0.047000002 0.76000005 6964792
-0.0055714287 0.044857148 0.76000011 6898999
0.0045000003 0.044 0.76075006 6964535
0.015000001 0.044000007 0.76144451 7030584
0.024555555 0.044 0.7625556 7227707
0.034000002 0.044 0.7641111 7293758
0.044500005 0.044750001 0.76583332 7294272
0.055000003 0.045000002 0.7676667 7557444
0.063857146 0.04585715 0.76785713 7425859
0.073400006 0.046800006 0.76880008 7162688
0.081500009 0.048 0.76900005 6768185
-0.17250001 0.056000002 0.76450002 4860193
-0.16866668 0.052000001 0.76500005 4598566
-0.034500003 0.059000004 0.76000005 6833206
-0.024999999 0.057 0.76022232 6833206
-0.014727274 0.054909095 0.76063651 6898999
-0.0062727272 0.054090913 0.76145458 6899255
0.0045000003 0.05308333 0.76225013 6898999
0.015000001 0.053333338 0.76288891 6964534
0.02488889 0.053777777 0.764 6964533
0.033999998 0.054000001 0.76500005 6898742
0.044500005 0.053999994 0.7660833 6702133
0.055000003 0.054000001 0.76722229 6570548
0.064444453 0.054000005 0.76755559 6439220
0.074000008 0.054000001 0.76844448 6373427
0.082625009 0.053624999 0.76887506 6373427
-0.178 0.0625 0.76400006 5518376
-0.043000001 0.067333333 0.76000005 6899251
-0.035625003 0.065750003 0.76037508 6833460
-0.025500001 0.065583326 0.76125008 6833460
-0.015000001 0.065888889 0.76222223 6899253
-0.0057000006 0.065400004 0.76289999 6898998
0.0044999998 0.064500004 0.76400006 6898999
0.015333335 0.064499997 0.76500005 6833463
0.024999999 0.064499997 0.76583332 6833462
0.033999998 0.064499997 0.76633328 6767669
0.044500005 0.064500004 0.76737505 6701876
0.054727279 0.0640909 0.76845461 6505268
0.064500004 0.062624998 0.76875007 6439218
0.072000004 0.061000001 0.76900005 6439219
-0.05325 0.077250004 0.76000005 6964790
-0.045000002 0.07500001 0.76066679 6899253
-0.036000002 0.075000003 0.76133341 6898997
-0.0255 0.07500001 0.7626667 6898997
-0.015000001 0.075000003 0.76355559 6964789
-0.0060000001 0.075000018 0.76377779 6899254
0.0045000003 0.07500001 0.76500005 6898998
0.015444446 0.075000003 0.76633334 6833719
0.025 0.075000003 0.76722229 6833462
0.033999998 0.07500001 0.76744455 6833205
0.044090912 0.075000003 0.76863647 6701876
0.052000001 0.074000001 0.76900005 6570804
-0.063749999 0.086250007 0.76025003 7030583
-0.055090908 0.08372727 0.7608183 6964790
-0.045000002 0.083999991 0.76200002 6899253
-0.035999998 0.084000006 0.76233333 6898997
-0.025500001 0.083999991 0.76325005 6898997
-0.015000001 0.083999999 0.7641111 6898998
-0.0060000001 0.084000006 0.76488888 6899253
0.0044999998 0.084083326 0.76574999 6964790
0.015666667 0.084444448 0.76722229 6898997
0.025 0.08477778 0.76844454 6898996
0.03357143 0.084142864 0.76900005 6833204
0.041000005 0.082999997 0.76900005 6833205
-0.074500009 0.099000007 0.76000005 7096118
-0.065200001 0.094800018 0.76060009 7030840
-0.054666672 0.094500005 0.76166672 7030582
-0.045363639 0.094090916 0.76272732 6965046
-0.035999998 0.093000002 0.76344442 6965046
-0.0255 0.093250006 0.76433331 6965045
-0.015000001 0.093555555 0.76544446 6964789
-0.0060000001 0.093666673 0.7664445 6898997
0.0044999998 0.093833335 0.76725006 6964789
0.01588889 0.094000012 0.76833344 6898997
0.023800001 0.092800006 0.76900005 6898999
-0.082000002 0.109 0.76000005 6701618
-0.076000005 0.10544445 0.76033342 6964789
-0.065500006 0.10558334 0.76166672 7096375
-0.055000003 0.10577779 0.76288891 7096631
-0.045000002 0.10572729 0.76399994 7096375
-0.035727274 0.10409092 0.76454544 7096118
-0.0255 0.1045 0.76543748 7030582
-0.015000001 0.10450002 0.76666671 7096118
-0.0059999996 0.1045 0.76741672 7030582
0.0044999998 0.10450001 0.76868749 6899255
0.013750001 0.10225 0.76900005 6964791
-0.082750008 0.11575001 0.76000005 7359291
-0.076000005 0.11500001 0.7612223 7293498
-0.065499999 0.11500001 0.7626667 7161912
-0.055 0.11500001 0.7638889 7161912
-0.044500005 0.11500001 0.76483339 7161910
-0.034833334 0.115 0.76583338 7161910
-0.0255 0.11524999 0.76650006 7096118
-0.015000001 0.11544445 0.76744455 7096118
-0.0060000001 0.11566667 0.76833344 7030581
0 0.1145 0.76900005 6964789
-0.091500007 0.12550001 0.76000005 7359289
-0.084624998 0.12437501 0.76025009 7359290
-0.076000005 0.12400001 0.76144451 7293498
-0.065499999 0.12416667 0.76291674 7227705
-0.055 0.12444445 0.76422226 7227704
-0.044499997 0.12475001 0.76533335 7162168
-0.035333335 0.125 0.76616669 7161912
-0.0255 0.125 0.76725006 7161911
-0.015000001 0.125 0.76800007 7096117
-0.0075000003 0.125 0.7688334 7096117
-0.19400001 0.13600001 0.76400006 10712933
-0.16166668 0.13566667 0.76466674 6504238
-0.092000008 0.13366668 0.76000005 7424825
-0.08544445 0.13366668 0.76055568 7359289
-0.076000005 0.1337778 0.76144451 7359289
-0.065499999 0.13400002 0.76300001 7293498
-0.055000003 0.134 0.76422226 7293496
-0.044500005 0.13400002 0.76524997 7227703
-0.034375001 0.13437502 0.7665 7161910
-0.024599999 0.13370001 0.76730007 7161910
-0.015000001 0.13411112 0.76811117 7096373
-0.0075000003 0.13433334 0.76900005 7096118
-0.19000001 0.142 0.76100004 7750186
-0.18800001 0.149 0.76400006 4398865
-0.16333334 0.145 0.76300001 8477513
-0.092000008 0.1415 0.76000005 7424825
-0.085142866 0.14492857 0.76057154 7424825
-0.075600013 0.14390001 0.76170003 7359289
-0.065500006 0.14450003 0.76287502 7359289
-0.055300005 0.14360002 0.76409996 7359289
-0.044846158 0.14353846 0.76507699 7227959
-0.033999998 0.14355555 0.76633334 7227703
-0.024 0.14366668 0.76700008 7161910
-0.015000001 0.14399999 0.76800007 7096117
-0.0075000003 0.14399999 0.76900005 7096118
-0.1825 0.15200001 0.76400006 6832435
-0.175 0.15200001 0.76600003 7950396
-0.16800001 0.15200001 0.76400006 9068618
-0.08200001 0.154 0.7601667 7556411
-0.075166672 0.15533333 0.7610001 7622461
-0.065500006 0.15575001 0.7619167 7556925
-0.054727271 0.15481819 0.76309091 7490619
-0.044200003 0.15479998 0.76446658 7293495
-0.033999998 0.15450001 0.76591665 7161910
-0.024250001 0.15449999 0.76650006 7096374
-0.015272727 0.1540909 0.76745456 7096118
-0.0068571428 0.15371428 0.76885718 7161912
-0.065499999 0.16150001 0.76025003 5912104
-0.054250002 0.16249999 0.76125002 6439219
-0.044500001 0.16337501 0.76225007 7622979
-0.033999998 0.16350001 0.764 7294014
-0.024599999 0.16510001 0.76289999 7294015
-0.0147 0.16479999 0.76519996 6833720
-0.0059999996 0.16424999 0.76683336 6702134
0.0022499999 0.16600001 0.76812506 6768184
0.012250001 0.16825002 0.76850003 7031358
-0.0044999998 0.171 0.76050007 7952202
0.0045000003 0.171 0.76325005 7952198
0.016600002 0.1728 0.76360005 7951942
0.025 0.17333335 0.76550007 7360580
0.034000002 0.17650001 0.76483339 7031615
0.043000005 0.17750001 0.76600003 7097406
0.054500002 0.17900001 0.76600003 7294530
0.065333337 0.17900001 0.76700002 7426887
0.074999996 0.17900001 0.76799995 7623752
0.082500003 0.17900001 0.76800001 7492678
0.29300001 0.178 0.76550007 2432538
0.065000005 0.18066669 0.76066667 7623751
0.074666671 0.18166667 0.76366669 7361095
0.084750012 0.18150002 0.76475 7492422
0.094285712 0.18085715 0.76500005 7426886
0.1045 0.18150002 0.76475 7426885
0.11566667 0.18300001 0.76600003 7426371
0.125 0.18300001 0.76666665 7229761
0.13500001 0.18400002 0.76733333 7295300
0.145 0.18400002 0.76866674 7229763
0.153 0.185 0.76900005 7164225
0.18550001 0.186 0.76900005 7230278
0.19400001 0.186 0.76900005 7164742
0.20333333 0.186 0.76733333 7033670
0.21400002 0.18575001 0.76375008 6968135
0.22350001 0.185 0.76050007 7034443
0.23400001 0.18400002 0.76800007 7166033
0.24333334 0.18400002 0.76600003 7166547
0.25300002 0.18433334 0.76500005 7101267
0.26333335 0.18466668 0.76366669 7101011
0.27400002 0.18566667 0.76566672 7035218
0.28500003 0.185 0.76425004 6835001
0.29200003 0.18166667 0.76333332 7231819
-0.14500001 0.0050000004 0.77000004 8879227
-0.13900001 0.0080000004 0.77000004 9598835
-0.126 0.011000001 0.77200001 10190708
-0.1065 0.014 0.77350003 9991787
-0.078000009 0.017000001 0.77250004 9726813
-0.064333342 0.021333337 0.7743333 8805709
-0.055000003 0.023999998 0.77733344 8609101
-0.035 0.026000001 0.77149999 8543054
-0.025500001 0.02675 0.77600002 8543055
-0.0090000005 0.029000001 0.77100003 8412236
-0.0044999998 0.030000001 0.77250004 8346443
0.0029999998 0.030000001 0.7766667 8346445
0.017500002 0.033 0.77149999 8149324
0.025 0.033 0.77600002 8017996
0.034000002 0.035 0.77333337 8017998
0.044500001 0.03675 0.77250004 7952461
0.054166675 0.037500001 0.77433342 8084046
0.065000005 0.039000001 0.773 8018250
0.07433334 0.039000001 0.77600002 7886666
0.084000014 0.039000001 0.77833343 7886411
0.066500008 0.042000003 0.77000004 8017997
0.074750006 0.042750001 0.77100003 7952460
0.084250003 0.044625007 0.77150005 7689031
0.094500005 0.045000002 0.77330005 7756630
0.1051 0.044700004 0.77530003 8548208
0.11511111 0.045000002 0.77600002 9010048
0.12466666 0.045777779 0.77688897 9536908
0.13433336 0.047499999 0.77716666 10195614
0.14325 0.048250005 0.77850008 9143950
0.088249996 0.054750007 0.77000004 6506045
0.095999993 0.054111112 0.77166665 6772568
0.10511112 0.054444447 0.77300012 7563374
0.11500001 0.054777779 0.77355564 7958392
0.12444445 0.054999996 0.77444452 8352893
0.13422222 0.055 0.77600002 8418942
0.14422223 0.055000003 0.77800006 7629424
0.15100001 0.055000003 0.77900004 6247255
-0.177 0.064000003 0.77000004 7294529
0.059000004 0.069000006 0.77000004 6570804
0.065750003 0.06825 0.77000004 6373683
0.07500001 0.064166665 0.7701667 6373683
0.083111122 0.06344445 0.77055562 6308407
0.094499998 0.063916676 0.77266669 6970721
0.10555556 0.063999996 0.77366674 8550272
0.11500001 0.063999996 0.77444452 8484479
0.1248889 0.063999996 0.77611113 8550016
0.13455558 0.064333342 0.77755564 8089976
0.14175001 0.063750006 0.77875006 7563631
0.049000002 0.079000004 0.77000004 6767411
0.056714289 0.076428577 0.77028573 6636339
0.065000005 0.076000005 0.77099997 6570291
0.074000001 0.074500002 0.77158332 6373426
0.083833337 0.074500002 0.77283335 6375489
0.093857147 0.074071422 0.77442855 6773084
0.10530001 0.073400006 0.77490008 7892597
0.11522223 0.073444456 0.77577782 8221307
0.12511112 0.073888883 0.77755558 7958135
0.134 0.073000006 0.77883339 8155769
0.141 0.071000002 0.77900004 8484735
0.035500001 0.088000007 0.77000004 6767412
0.045666669 0.085666664 0.77033335 6767413
0.056000002 0.085000008 0.77144444 6636084
0.064999998 0.085000001 0.77211112 6570036
0.074222222 0.085111119 0.77311122 6439220
0.084000006 0.085666679 0.77466673 6903897
0.093222223 0.085999995 0.7753334 8024181
0.1045 0.084499992 0.77625006 7234411
0.11545455 0.084090911 0.7773636 5852757
0.12428571 0.082571439 0.7787143 6642273
0.026500002 0.095500007 0.77000004 6964791
0.034000002 0.094000012 0.77066666 6898999
0.043111112 0.094111107 0.77166671 6833205
0.054500002 0.094666667 0.773 6636084
0.065000013 0.094888896 0.77366674 6570292
0.074777775 0.095000006 0.77455562 6439994
0.084000006 0.094999999 0.77588892 7299687
0.093777791 0.095111117 0.77644444 8681857
0.10300001 0.095444448 0.77733332 7694962
0.11390002 0.094700009 0.77870005 6181466
0.12200001 0.090000004 0.77900004 6971496
0.017800001 0.1036 0.77000004 6899256
0.025 0.10344444 0.77044445 6964792
0.034000002 0.10377777 0.77177775 6898999
0.043444443 0.104 0.77333343 6767413
0.054500002 0.104 0.77450007 6701876
0.065111116 0.10433335 0.7753334 6504754
0.075000003 0.10444444 0.77577782 6506560
0.084111109 0.10488889 0.77711117 7431786
0.094000004 0.105 0.77777779 8682113
0.103 0.104625 0.77862513 8024183
0.11000001 0.10200001 0.77900004 6576734
0.0049999999 0.116 0.77000004 6965045
0.015538463 0.11484618 0.77053845 6964791
0.025 0.11450002 0.77141666 6964535
0.033727273 0.11409093 0.7723636 6898486
0.043888889 0.11333334 0.77400005 6898486
0.054500002 0.11375 0.77516669 6701621
0.065666668 0.114 0.77611113 6505271
0.07500001 0.114 0.77711111 7035739
0.084666662 0.11411112 0.77788889 8155768
0.093625002 0.11412501 0.77862513 8747906
0.10133333 0.11266667 0.77900004 8550270
-0.16333334 0.12433334 0.77399999 6503982
-0.0029999998 0.125 0.77000004 6964788
0.0029999998 0.12533334 0.77088886 6964790
0.014500002 0.12549998 0.77133328 7030326
0.025 0.12566668 0.77233338 6964533
0.034400001 0.12540002 0.77370012 6964279
0.043727275 0.12409093 0.77490908 6832693
0.054500002 0.12325001 0.77633333 6767157
0.066 0.12344444 0.77733332 6768960
0.075000003 0.12400001 0.77822226 7430501
0.08477778 0.12400001 0.77866673 8615807
0.092000008 0.122 0.77900004 8813700
-0.19500001 0.13700001 0.77500004 9726548
-0.163 0.13000001 0.77000004 6635310
-0.0029999998 0.13466668 0.77000004 7030326
0.0030000003 0.13488889 0.77066666 7030325
0.0145 0.13500001 0.77216655 7030325
0.025 0.13533334 0.7735557 6964532
0.034333333 0.13555557 0.77477783 6898739
0.044300001 0.13530003 0.77570003 6832946
0.053538464 0.13415387 0.77715391 6767411
0.064500004 0.13391669 0.77841669 6702649
0.074857153 0.13228573 0.77899998 6902095
0.082000002 0.13000001 0.77900004 7495782
-0.19150001 0.14300001 0.77350003 7290923
-0.18900001 0.147 0.77000004 5647385
-0.16700001 0.14400001 0.77500004 9135700
-0.0029999998 0.14400001 0.77000004 7030837
0.003 0.14399999 0.77066666 6964789
0.014500002 0.14466669 0.77249998 6964790
0.025 0.145 0.77444452 6899253
0.034555558 0.14522225 0.77555561 6898997
0.044 0.14555557 0.77644444 6833205
0.053333338 0.14588889 0.77766663 6701619
0.064499997 0.14514287 0.77885729 6768187
-0.18366666 0.15166669 0.7766667 6701105
-0.17650001 0.15150002 0.77900004 8344384
-0.17 0.15000001 0.77400005 8871239
-0.003 0.15200001 0.77000004 7030326
0.003 0.1538889 0.77055556 7096118
0.0145 0.15400003 0.77225 7030325
0.025 0.15433335 0.77411121 6899253
0.034666672 0.155 0.77555561 6833461
0.044000003 0.155 0.77644444 6767413
0.053555559 0.15522224 0.77755558 6767926
0.064500004 0.15591668 0.77866673 6702131
0.0044999998 0.16150001 0.77025002 7096374
0.014909091 0.1630909 0.77118182 6899510
0.025 0.164 0.77300006 6899770
0.034666669 0.164 0.77422231 7031356
0.044 0.16455555 0.77555561 6899513
0.05366667 0.16500001 0.77688891 6965304
0.064499997 0.16516666 0.77799994 6833717
0.07514286 0.16614287 0.77885723 6702388
0.019000001 0.17 0.77000004 7031615
0.025 0.17 0.77066666 5650992
0.034500003 0.17149998 0.77150005 6177079
0.044375002 0.17299999 0.77225006 6242615
0.053111117 0.17366667 0.77266669 6440251
0.064500004 0.17408335 0.77383333 6243386
0.075555563 0.17444447 0.77488881 6572351
0.085111111 0.17466667 0.77611113 6309434
0.094666682 0.17650001 0.77600008 6638402
0.1036 0.1772 0.77680004 6309436
0.114 0.17900001 0.77733332 7230022
0.12100001 0.17900001 0.77900004 7164229
0.289 0.17900001 0.77900004 4669240
0.29200003 0.17900001 0.77600002 5985617
0.10550001 0.18000001 0.77000004 7427142
0.11333334 0.18100001 0.77200001 7426628
0.123 0.182 0.77399999 7229507
0.1345 0.18200001 0.77425003 7229509
0.14450002 0.18300001 0.77649999 7163714
0.15425001 0.18350002 0.77525002 7098433
0.16457145 0.18442859 0.77457148 7098434
0.17516667 0.18483335 0.77400011 7098433
0.18475001 0.18475001 0.77600008 7164226
0.19600002 0.185 0.77800006 7164740
0.20600002 0.185 0.77733332 6968133
0.21500002 0.185 0.77466673 7033158
0.22433335 0.18433334 0.7713334 7033931
0.23450001 0.18300001 0.77725005 7101013
0.24450001 0.18300001 0.77600002 7101013
0.25333333 0.18366669 0.77666664 7035732
0.26366666 0.18400002 0.77666664 6838868
0.2746667 0.185 0.77766675 6705994
0.28500003 0.18360002 0.77480006 7098944
0.29000002 0.18100001 0.77200001 7100748
-0.14500001 0.0050000004 0.78600001 8549231
-0.13800001 0.0080000004 0.78200006 9665141
-0.124 0.011000001 0.7845 10650748
-0.10300001 0.015000001 0.78500003 11175033
-0.075000003 0.018000001 0.78300005 10253412
-0.062000003 0.021000002 0.78600001 8674639
-0.044500001 0.024 0.78150004 8740686
-0.034000002 0.023999998 0.7856667 8609102
-0.015000001 0.027000001 0.78100008 8608592
-0.0059999996 0.027000001 0.78533334 8542798
0 0.027000001 0.78800005 8542800
0.21800001 0.028000001 0.78800005 8353908
0.014500001 0.030000001 0.78275001 8149068
0.023500001 0.030000001 0.78800005 8149326
0.036000002 0.033 0.78200006 8017741
0.044000003 0.033 0.78600001 8083790
0.059000004 0.036000002 0.78000003 8149582
0.065666668 0.036000002 0.78233337 8017996
0.075333335 0.036333334 0.787 7952204
0.093666673 0.039000001 0.78100008 8018255
0.1 0.039000001 0.78300005 7951694
0.13150001 0.037 0.78900003 7625042
0.10550001 0.040000003 0.7845 7820621
0.11333334 0.040000003 0.78600001 7689550
0.12450001 0.040000003 0.78425008 7624268
0.13533334 0.041499998 0.78266668 8547948
0.14549999 0.042624999 0.78387511 8943995
0.15450001 0.045400005 0.78350002 8747649
0.1647778 0.046 0.78522223 7625300
0.17359999 0.046200003 0.78640002 7558729
0.185 0.047000002 0.78766674 7755852
0.192 0.047000002 0.78900003 7953232
0.23200001 0.047000002 0.78900003 12632271
0.15475 0.055250004 0.78037506 6508882
0.16422224 0.05566667 0.78200006 6308664
0.17472726 0.054909095 0.78381819 6571836
0.18466665 0.054500002 0.78533334 6768957
0.19500001 0.05450001 0.78733343 6637629
0.2041667 0.054166671 0.78850007 6506300
0.22900002 0.055500001 0.78900003 5456704
0.23200001 0.053666666 0.78800005 7565433
0.14680001 0.0656 0.78000003 7234665
0.15455557 0.065000005 0.78144455 6444117
0.16455556 0.065000005 0.78300005 5980215
0.17477778 0.065333337 0.78444445 5979698
0.18477777 0.065666661 0.78577787 5914160
0.19533335 0.066000007 0.78766674 5914160
0.204375 0.063375004 0.78875005 5913905
0.22900002 0.060000002 0.78900003 4338479
0.23233335 0.063333333 0.78800011 3946555
0.13700001 0.076000005 0.78000003 7432045
0.14525001 0.074500002 0.78087509 7497839
0.1548889 0.074555553 0.78255558 7695216
0.16500001 0.0748889 0.78466666 6838617
0.17511111 0.075000003 0.78600001 5980986
0.18544446 0.075333327 0.78722227 5453095
0.19555555 0.075777784 0.78855562 5584681
0.20200001 0.074500009 0.78900003 5782317
0.233 0.073000006 0.78900003 4867659
0.12900001 0.085000008 0.78000003 8090232
0.13533334 0.083777785 0.78077781 5589584
0.14522222 0.084000006 0.78244448 6643042
0.15533334 0.084222227 0.78422225 7234922
0.16544445 0.08477778 0.78644443 6706775
0.17555557 0.085000008 0.78766674 6310468
0.18542857 0.084142864 0.78871435 5716525
0.192 0.082000002 0.78900003 5518373
0.11800001 0.098000012 0.78000003 6116184
0.126 0.094000012 0.78055567 6905957
0.13566667 0.093222223 0.78222227 6050392
0.14566667 0.093666673 0.78411108 8155770
0.15577778 0.094000004 0.78588891 8024183
0.16500001 0.093714289 0.78757149 6970977
0.17375 0.094375014 0.78887504 5982018
0.18300001 0.092000008 0.78900003 5650477
0.10700001 0.109 0.78000003 6839651
0.11350001 0.10575001 0.78012508 7102822
0.12381818 0.10481818 0.78190917 6708579
0.13450001 0.10450002 0.78350008 7563632
0.14562501 0.10300002 0.78525007 8156027
0.15450001 0.103875 0.78662509 8616064
0.16337501 0.104375 0.78850007 8024181
0.17 0.101 0.78900003 7234150
0.097000003 0.11800001 0.78000003 8813443
0.105 0.116 0.78016669 8023927
0.11344445 0.11500001 0.78133339 8287098
0.12322223 0.11555555 0.7831111 8681857
0.13322222 0.11600002 0.7846666 8221305
0.1429 0.11369999 0.78600007 8616320
0.15322223 0.11355557 0.78755563 8681856
0.16150001 0.11383334 0.78883338 7168616
-0.16500001 0.12 0.78300005 6504237
0.09533333 0.12516667 0.78016669 8813442
0.104 0.12455556 0.78100008 8747649
0.11388889 0.125 0.78255558 8813186
0.12366667 0.12533334 0.78422225 8813187
0.13366666 0.1258889 0.78633338 8813185
0.14355555 0.12400001 0.78744453 8747650
0.15355557 0.12322223 0.78855562 8682113
0.16000001 0.12 0.78900003 8681856
-0.19600001 0.13700001 0.78800005 9857879
0.077500001 0.13700001 0.78000003 6703943
0.085375004 0.13437501 0.78012508 7100246
0.094666675 0.134 0.78077787 7561313
0.10422221 0.13433333 0.78200006 7891051
0.11411112 0.13477778 0.78377777 8615547
0.12400001 0.13522223 0.78533334 8878464
0.134 0.13577779 0.78755563 8944256
0.14400001 0.1345 0.7883001 8615548
0.152 0.13240001 0.78900003 8747392
-0.192 0.14300001 0.78500003 7422251
-0.18900001 0.149 0.78300005 5451297
-0.17300001 0.149 0.78500003 8871243
-0.16800001 0.142 0.78100002 9333338
0.069000006 0.14 0.78000003 6638406
0.075666666 0.14300001 0.78000009 6835270
0.085000008 0.14355557 0.78066671 6769734
0.095000006 0.14377779 0.78133339 6704198
0.10455555 0.14411111 0.78299999 6572869
0.11444446 0.14477777 0.78511107 6901834
0.12433334 0.14522223 0.78644454 6769732
0.13433334 0.14566667 0.78811121 6242614
0.14375001 0.14487502 0.78900003 6505787
0.15100001 0.14 0.78900003 6902865
0.076000005 0.15449999 0.78008342 6636854
0.085222222 0.15300001 0.78100008 6636856
0.095000006 0.15355557 0.78200006 6703164
0.10488889 0.15400001 0.78333336 6637372
0.11466667 0.15444446 0.7854445 6439734
0.12466668 0.15511112 0.78733343 6439476
0.13455556 0.15555555 0.78855562 6308146
0.141 0.15450001 0.78900003 6373682
0.079000004 0.1645 0.78000003 6702129
0.085416667 0.16450001 0.78058338 6702644
0.094999999 0.16311112 0.78177786 6571058
0.105 0.16377778 0.78322226 6505010
0.11488889 0.16433334 0.78500003 6439217
0.1248889 0.16499999 0.78666675 6439217
0.13477778 0.16533335 0.78811121 6308144
0.14225 0.16650002 0.78900003 6373936
0.095000006 0.17150001 0.78066665 5848370
0.10542857 0.17214286 0.78185713 5914678
0.11466667 0.17388889 0.78299999 6506042
0.12455556 0.17400001 0.78433335 6571578
0.13455558 0.17488891 0.7855556 6637627
0.14455557 0.17511111 0.787 6703420
0.15428571 0.17685714 0.78785717 6703678
0.16466668 0.17900001 0.78800005 6638142
0.12550001 0.18000001 0.78000003 7164230
0.134 0.18000001 0.78000003 7164228
0.14366667 0.18066669 0.78133339 7098437
0.15366668 0.18100001 0.78266668 7098436
0.16400002 0.18166667 0.78366667 6967106
0.17433335 0.18100001 0.78633332 6835265
0.18449999 0.18116669 0.78649998 6769726
0.19433336 0.18300001 0.78466672 7032641
0.20433335 0.18333335 0.78500003 7098947
0.214 0.18400002 0.7840001 7033157
0.22525002 0.18275002 0.78300005 6969167
0.23566668 0.182 0.78766674 6838870
0.24450001 0.18200001 0.78750002 6838868
0.25 0.18300001 0.78900003 6970196
0.27650002 0.18400002 0.78800005 5783860
0.28450003 0.18200001 0.78550005 6902853
-0.101 0.015000001 0.79400003 11240570
-0.073000006 0.018000001 0.79600006 10318692
-0.07 0.018000001 0.79900002 10647658
-0.057 0.021000003 0.79466671 8674125
-0.048500001 0.021000002 0.79850006 8608334
-0.025 0.023999998 0.79200006 8543311
-0.017500002 0.024 0.79800004 8543311
0.0049999999 0.027000001 0.79150003 8411470
0.011500001 0.027000001 0.79700005 8214347
0.21800001 0.028000001 0.79800004 10713903
0.029000001 0.030000001 0.79100001 8083791
0.035 0.030000001 0.79400009 8017741
0.042000003 0.031000001 0.79900002 8017996
0.054000001 0.033333335 0.79133338 8083789
0.063666672 0.034000002 0.79533339 8017998
0.07 0.034000002 0.79900002 8017998
0.085333325 0.037 0.79033333 7952205
0.095000006 0.037 0.79166669 8084049
0.10533334 0.037 0.79600006 7886927
0.11500001 0.037 0.79866672 7690319
0.12400001 0.037 0.79266667 7690321
0.13600001 0.037 0.79000002 7493970
0.14333333 0.037 0.79133338 7494228
0.15333335 0.037 0.79400009 7297620
0.16250001 0.037 0.79750001 7100498
0.21800001 0.038000003 0.79900002 9202270
0.22425002 0.035 0.79562503 9008754
0.23 0.038000003 0.79200006 13685999
0.1575 0.040000003 0.79050004 7758173
0.1645 0.040000003 0.79250002 7758171
0.175 0.0414 0.79300004 7493453
0.18483333 0.042500004 0.79399997 7690318
0.19528571 0.043571431 0.79414284 7821903
0.20412502 0.043625001 0.79537505 7624780
0.2137778 0.044000003 0.79522222 7164227
0.22380003 0.044300001 0.79260004 7691603
0.23 0.042500004 0.79150003 9540001
0.208 0.050999999 0.79033333 7164229
0.21537501 0.054000009 0.79087502 7098180
0.22450003 0.052750003 0.79062504 7361866
0.208 0.066000007 0.79000002 5913904
0.21433336 0.063000001 0.79049999 5782575
0.22360003 0.063299999 0.79069996 5651248
0.23 0.067000002 0.79000002 5194046
0.20600002 0.075400002 0.79020005 5650473
0.21330002 0.074500002 0.7913999 5782574
0.22322223 0.072999999 0.79188889 5717296
0.23 0.073000006 0.79133338 5129539
0.186 0.089000002 0.79000002 6111542
0.19525 0.085874997 0.79000002 5518887
0.204 0.086285718 0.79071426 5518631
0.2138 0.0854 0.79250002 5387303
0.22377777 0.082999997 0.79277778 6836298
0.23033334 0.083000004 0.79200006 4998472
0.17600001 0.098000005 0.79000002 6508362
0.1837143 0.095857151 0.79042858 5519404
0.19322222 0.095222227 0.79088885 5518888
0.20355555 0.095666677 0.79222226 5716010
0.21422225 0.095999993 0.79388899 5716525
0.22433335 0.09300001 0.79377788 5323314
0.23166668 0.093333334 0.79466671 7500146
0.17362499 0.10487501 0.79012501 7035998
0.18344444 0.10488889 0.79111111 6244418
0.19388889 0.10522223 0.79266673 5782060
0.20433334 0.10555556 0.79388899 5453352
0.21477777 0.106 0.79544449 5782575
0.22500001 0.10311112 0.79555559 4863534
0.23300001 0.1 0.79800004 9143946
0.16700001 0.11400001 0.79000002 7497837
0.17366667 0.11444446 0.79099995 7102561
0.18377781 0.11477777 0.79222214 6244674
0.19433334 0.11522223 0.79344451 5518890
0.20466667 0.11566667 0.79511118 5584425
0.21533334 0.11600002 0.79600006 5453353
0.22400001 0.11337501 0.79625005 5257264
0.23 0.11500001 0.79900002 5986652
0.16412501 0.124375 0.79000002 7365995
0.17388889 0.12422223 0.79133332 7168615
0.18433334 0.12455556 0.79277784 8220788
0.19466667 0.12511112 0.79400003 7033935
0.20533335 0.12555556 0.79588896 5781804
0.21525 0.12562501 0.79675001 5584425
0.22471431 0.12514286 0.79614288 5060914
0.23 0.123 0.79800004 4539461
-0.19900002 0.13600001 0.79800004 10056803
0.15625 0.13425002 0.79000002 8812670
0.16411112 0.13355556 0.79055554 8746619
0.17444444 0.13422222 0.79199994 8153966
0.18455556 0.13455556 0.79333341 7955815
0.1948889 0.13511111 0.79466671 6901576
0.20555556 0.13577777 0.79633337 6176308
0.21600001 0.13500002 0.79699999 5913648
0.22600004 0.13385715 0.79585713 4932160
-0.19233334 0.14500001 0.79399997 5843737
-0.17500001 0.148 0.79600006 8806477
-0.17 0.14 0.79000002 8412235
0.148 0.14600001 0.79000002 6373684
0.15475002 0.14362501 0.79037499 6308407
0.16455555 0.14366667 0.79188895 6242357
0.17477778 0.14422223 0.79333341 6242355
0.18533333 0.14477777 0.7945556 6242354
0.19555557 0.14533333 0.7957778 6242354
0.20485714 0.14514287 0.79657143 6110512
0.21333335 0.14550002 0.79800004 5913903
0.22333336 0.14322223 0.79766673 4994864
0.23 0.14300001 0.79700005 4342600
-0.18400002 0.15100001 0.79200006 7029555
-0.177 0.15100001 0.79100001 8607296
0.14585717 0.15514287 0.79000002 6307889
0.15466668 0.15322222 0.79122216 6308146
0.1648889 0.15377778 0.79233336 6307889
0.17533335 0.15411112 0.79355562 6242096
0.18555558 0.15477778 0.79466671 6242353
0.19577777 0.15522224 0.7957778 6176816
0.20466669 0.15566668 0.79699999 6242095
0.21344446 0.15411112 0.79833329 6044974
0.222 0.15000001 0.79900002 5125160
0.147 0.16450001 0.79033333 6373936
0.1547 0.16370001 0.79109997 6373936
0.16533335 0.16377777 0.79244453 6307887
0.17555556 0.16422224 0.79377788 6308144
0.18566668 0.16477779 0.7943334 6307886
0.19450001 0.16516668 0.79550004 6242349
0.20333335 0.16566665 0.79666668 6307887
0.2124 0.1638 0.79820007 6044971
0.15650001 0.1715 0.79049999 6506038
0.16533335 0.17344445 0.79133338 6571831
0.17544444 0.17400001 0.79211116 6637624
0.18555558 0.17422223 0.79255557 6374453
0.19450001 0.17500001 0.79416674 6242865
0.20322224 0.17577779 0.79544449 6308659
0.21340001 0.1752 0.79700005 5913904
0.28799999 0.1785 0.79200006 3354412
0.19533335 0.18100001 0.79000002 6638141
0.20566668 0.18100001 0.79066664 6573117
0.21600001 0.182 0.79066664 6573633
0.22480002 0.18100001 0.79440004 5851973
0.25600001 0.18350002 0.79050004 6904404
0.26533335 0.18400002 0.79166669 6969940
0.27500004 0.18350002 0.79400003 6377801
0.28266668 0.18133335 0.79500008 6443334
-0.13800001 0.0080000004 0.80000001 10190713
-0.12200001 0.012 0.80500007 11242113
-0.099000007 0.015000001 0.80600005 11174520
-0.065500006 0.018000001 0.80400002 8936269
-0.042500004 0.021000002 0.80050004 8740690
-0.035 0.021000003 0.80533338 7886152
-0.029000001 0.021000002 0.80900002 6570551
-0.012 0.024 0.80100006 8280654
-0.0060000005 0.023999998 0.8046667 8214861
0 0.024 0.80900002 8083275
0.017500002 0.027000001 0.801 8214348
0.026000001 0.028000003 0.80666667 8214349
0.21700001 0.028000001 0.80800003 11175225
0.046500001 0.031000001 0.80250001 8083790
0.053500004 0.031000001 0.80700004 8017996
0.075500004 0.034000002 0.801 7952205
0.083666675 0.034000002 0.80533338 7952206
0.093333334 0.034000002 0.80633336 7755084
0.1 0.034000002 0.80900002 7886671
0.1275 0.034000002 0.80550003 7494226
0.134 0.034000002 0.80450004 7099728
0.14 0.034000002 0.80800003 6968914
0.16800001 0.038000003 0.80100006 7100757
0.17533334 0.038000003 0.80366677 7035220
0.18450001 0.038000003 0.80650008 7428694
0.19333334 0.038000003 0.80733329 7757142
0.2045 0.038000003 0.80599999 8743006
0.21585715 0.034857143 0.80400002 8808540
0.22200002 0.031000001 0.80000001 8022117
0.23300001 0.104 0.80000001 5920347
-0.17300001 0.13900001 0.80300003 7359289
-0.19333334 0.14433335 0.80300003 7160110
-0.178 0.147 0.80800003 8609356
-0.18550001 0.15000001 0.80650008 7161655
-0.18000001 0.15000001 0.80500007 8346183
0.22483335 0.15433334 0.80133337 4535083
0.21800001 0.16366668 0.80033332 6110252
0.22400002 0.16419999 0.80500001 5586483
0.21800001 0.17250001 0.80050004 6176304
0.22433335 0.1745 0.80400008 4931387
0.23100001 0.17900001 0.80700004 4998726
0.23566668 0.18100001 0.80000001 5919055
0.245 0.18200001 0.80050004 6378578
0.255 0.18266667 0.80366677 6510418
0.26600003 0.18400002 0.80566669 6509903
0.27500001 0.18300001 0.80433339 4864305
0.28150001 0.1805 0.80350006 6640719
-0.13600001 0.0090000005 0.81200004 10454144
-0.061000004 0.018000001 0.81000006 8673352
-0.054666668 0.018000001 0.81300002 7425087
-0.045000002 0.018000001 0.81533337 7228481
-0.037500001 0.018000001 0.81850004 7031876
-0.023500001 0.021000002 0.81200004 6175537
-0.016000001 0.021333337 0.81666666 6964797
-0.0090000005 0.022000002 0.81900007 7294275
0.0049999999 0.025 0.81200004 7754310
0.013333335 0.025 0.81633335 7294018
0.035666671 0.028000003 0.81366664 7820362
0.043000001 0.028000001 0.81800002 7492168
0.215 0.029000001 0.81400001 11505229
0.058000002 0.031000001 0.81000006 7952716
0.065000005 0.031000001 0.81333333 7886667
0.073500007 0.031000001 0.81800008 7755081
0.10600001 0.034500003 0.8125 7690061
0.11466667 0.035 0.81766671 7558733
0.1225 0.035 0.81450003 7493456
0.146 0.035 0.81500006 6443088
0.20566668 0.035 0.81666666 8743008
0.21300001 0.033000004 0.81333333 8808285
0.23800001 0.116 0.81700003 5920607
-0.19900002 0.13800001 0.81100005 8739399
-0.17600001 0.13800001 0.81600004 6503723
-0.1945 0.14500001 0.81500006 6896939
-0.18300001 0.149 0.81900007 8148807
0.22800002 0.16900001 0.81000006 5327432
0.23200001 0.16000001 0.81600004 5326663
0.23300001 0.177 0.81400001 5064519
0.28600001 0.17900001 0.81100005 6181973
0.23600002 0.18100001 0.81300002 4933964
0.24400002 0.18133335 0.81533337 5327432
0.25350001 0.1825 0.81800008 5459276
0.26300001 0.18300001 0.81900007 5787210
0.27266666 0.18266667 0.81533337 4535600
0.28250003 0.18000001 0.81700003 4601911
-0.053000003 -0.11000001 0.82800007 8348254
-0.045250002 -0.111 0.82625002 8215639
-0.036000002 -0.11200001 0.82616663 8019289
-0.024499999 -0.11200001 0.82725006 7953496
-0.013000001 -0.11200001 0.82783341 7953753
-0.0044999998 -0.11150001 0.82600003 8414304
0.0036666666 -0.1115 0.82533342 8613486
0.013333333 -0.11166667 0.82616669 8089719
0.023333335 -0.11200001 0.82700008 6184296
0.033333335 -0.11000001 0.82733339 8751254
0.043333337 -0.11033335 0.82866669 7895693
0.050000001 -0.11100001 0.82900006 5856363
-0.054000001 -0.105 0.82499999 8019033
-0.045666669 -0.1045 0.82249999 8083796
-0.036000002 -0.1045 0.82283336 7820365
-0.026000001 -0.10466667 0.82366675 7754573
-0.014500001 -0.105 0.824875 7820366
-0.0044999998 -0.105 0.82525003 7820623
0.0036666666 -0.105 0.82499999 7820881
0.013333335 -0.105 0.82600003 7886418
0.023333335 -0.10516667 0.82700008 7491662
0.033333331 -0.10550001 0.82733339 7229005
0.043333337 -0.10550001 0.8275001 7691359
0.053333338 -0.10550001 0.82800007 7166300
0.06333334 -0.104 0.82900006 6838105
0.07 -0.10700001 0.82900006 6120561
-0.05566667 -0.096666664 0.82522225 7097930
-0.045666669 -0.09633334 0.82244444 7623502
-0.035999998 -0.09644445 0.82333332 5126714
-0.026000001 -0.096444458 0.8241111 5323837
-0.0145 -0.096666671 0.8251667 7163722
-0.0045000003 -0.096666664 0.82583338 6835014
0.0036666666 -0.096666664 0.8263334 6506308
0.013333334 -0.096666664 0.82666671 7295051
0.023333333 -0.096999995 0.82733339 6176570
0.033333335 -0.096999988 0.8276667 5388599
0.043222222 -0.09700001 0.82766676 7032396
0.053200006 -0.0964 0.82849997 7163979
0.060000002 -0.095500007 0.82900006 7361359
-0.05566667 -0.085083336 0.82508332 8149331
-0.045666669 -0.085000008 0.82358336 6440257
-0.036000002 -0.085000016 0.82450002 4930108
-0.026000002 -0.085000001 0.8249166 6243910
-0.014500003 -0.085125014 0.82625002 5718079
-0.0045000003 -0.085250005 0.82700008 2957863
0.0036666666 -0.085250013 0.82725 5126714
0.013333335 -0.085249998 0.82808334 4337713
0.023333335 -0.085250013 0.82808352 5586233
0.032374997 -0.086500004 0.82862502 2432805
0.043400005 -0.087600008 0.82900012 6244424
0.050000001 -0.090000004 0.82900006 6900549
-0.055666666 -0.075500004 0.82616681 8149328
-0.045666669 -0.07516668 0.82466668 6703684
-0.036000002 -0.075166672 0.8251667 2958375
-0.026000001 -0.075500011 0.82566673 6046530
-0.014500001 -0.075500011 0.8267501 6047042
-0.0044999998 -0.075500004 0.82775009 3418155
0.0036666666 -0.075500004 0.82816672 6966860
0.013333335 -0.075500004 0.82883334 7098189
0.022600003 -0.075800002 0.82900012 6571325
0.033 -0.075500004 0.82900006 2499626
0.046000004 -0.071000002 0.82900006 7491912
-0.056000002 -0.066400006 0.82659996 8215121
-0.045666669 -0.067000002 0.82499993 7623244
-0.035999998 -0.067000002 0.82555556 6506822
-0.026000001 -0.067000002 0.8262223 3286568
-0.014500001 -0.067000009 0.82725 5323577
-0.0044999998 -0.065499999 0.82837504 4601142
0.0036666666 -0.065499999 0.82891679 5060919
0.012000001 -0.068200007 0.82900012 4468783
0.020000001 -0.07 0.82900006 6767931
0.033 -0.07 0.82900006 2236456
-0.05536364 -0.055090915 0.82627279 8214092
-0.045666669 -0.057 0.82544446 5651512
-0.035700001 -0.056400008 0.82630014 5652285
-0.026000001 -0.055500001 0.82708341 3418154
-0.014500001 -0.055500004 0.82812506 4666677
-0.0044999998 -0.057000004 0.82900006 4995642
0.0020000001 -0.057000004 0.82900006 7229516
-0.05566667 -0.044000003 0.82666677 8082764
-0.045666669 -0.045499999 0.82600015 6768708
-0.036272727 -0.04509091 0.82618195 5848892
-0.026000001 -0.044 0.82700008 7229514
-0.014500001 -0.044 0.82816672 5980477
-0.0059999996 -0.044000003 0.82900006 5454391
-0.05566667 -0.033999998 0.82666671 7951175
-0.045666669 -0.034000002 0.8262223 4074539
-0.036000002 -0.034000002 0.82711118 5914685
-0.026000001 -0.034000002 0.82744455 7491915
-0.014500001 -0.033999998 0.82841682 7359815
-0.0060000001 -0.035500001 0.82900006 7425864
-0.05566667 -0.024333335 0.82755566 7754053
-0.045666669 -0.024222225 0.82755566 4469295
-0.035999998 -0.024333335 0.82855564 2563873
-0.026428571 -0.025285715 0.82871431 2498082
-0.01675 -0.027000003 0.82900006 3089188
-0.055666666 -0.014333334 0.82877785 7753797
-0.046428572 -0.015285715 0.82885724 7557190
-0.038000003 -0.016666668 0.82900006 7622983
-0.057500005 -0.0080000004 0.82900006 7885381
-0.148 0.0050000004 0.82000005 10061186
-0.052000001 0.0053333337 0.82900006 7687749
-0.064250007 0.014250001 0.82300007 9001546
-0.055500001 0.0135 0.82583332 6635315
-0.046500005 0.014250001 0.82650006 5781810
-0.035 0.01575 0.82650006 5649709
-0.026000001 0.018000001 0.82333332 6570297
-0.016000001 0.018333333 0.82733339 4991777
-0.0044999998 0.022000002 0.82150006 7096896
0.0036666666 0.022000002 0.82500005 6701882
0.013333335 0.022000002 0.82800007 5518377
0.023000002 0.025 0.82133335 7162690
0.033000004 0.025 0.82566673 6110258
0.045000006 0.027000001 0.82366675 6636345
0.056000005 0.028000003 0.82400006 6833723
0.064500004 0.028000001 0.82700002 6899515
0.07 0.028000001 0.82900006 6767931
0.079000004 0.031000001 0.82100004 7623238
0.085666679 0.032000002 0.82366675 7162689
0.095666669 0.032000002 0.82533336 5979187
0.10450001 0.032000002 0.82800007 6243131
0.15400001 0.035 0.824 5983565
0.19550002 0.035 0.82500005 7955550
0.2 0.035 0.82200003 8284001
0.21100001 0.032000002 0.82400006 8742749
0.24200001 0.12100001 0.82800007 5986399
-0.20200001 0.13700001 0.82600003 10057061
-0.19466667 0.14533333 0.8226667 6568490
-0.18700001 0.149 0.82100004 7030584
-0.18000001 0.14600001 0.82100004 9596251
0.23600002 0.16600001 0.82900006 4142647
0.23500001 0.17400001 0.82350004 5065292
0.24000001 0.18000001 0.82700002 4802892
0.26350003 0.18300001 0.82000005 5721160
0.27600002 0.18133335 0.82500005 5261125
-0.033 -0.12200001 0.83900005 5587267
-0.055333335 -0.11333334 0.83433342 6968403
-0.045200001 -0.1166 0.83360004 8479585
-0.034500003 -0.11750001 0.83150005 8809322
-0.024750002 -0.11775001 0.83250004 7757150
-0.013 -0.11800001 0.83366674 5786448
-0.0044999998 -0.11750001 0.83100003 7567236
0.0020000001 -0.11700001 0.83100003 8225426
0.055000003 -0.11100001 0.83050001 5067360
-0.060000002 -0.10600001 0.83450001 5587009
0.073750004 -0.10375 0.83024997 7561827
0.083000004 -0.10328571 0.83157146 6904671
0.093666673 -0.10300001 0.83350009 5852755
0.10380001 -0.10340001 0.83679998 6576992
0.11466667 -0.10200001 0.83766669 8090230
0.12466667 -0.10200001 0.83666676 5131862
0.057000004 -0.091000006 0.83000004 7295308
0.06428571 -0.093571432 0.82999998 7295309
0.073333345 -0.094222225 0.83088887 7229772
0.083333343 -0.094333328 0.8319999 7164235
0.093666673 -0.094666682 0.83311123 7295821
0.10377778 -0.094888896 0.83488894 7295822
0.11433335 -0.095222227 0.83611113 7296336
0.12444445 -0.095333353 0.83644444 7559251
0.13477778 -0.095444448 0.83744442 7494745
0.14320001 -0.095000006 0.83739996 5985885
-0.063000001 -0.084666669 0.83500004 7428447
0.035250001 -0.083250001 0.83000004 3024941
0.043833334 -0.084500007 0.82999998 6638666
0.053333338 -0.083999999 0.83033335 7163722
0.06333334 -0.084000006 0.83077776 7163722
0.073333338 -0.084111109 0.83155555 7163720
0.083333336 -0.084333338 0.83244449 7097929
0.093666673 -0.084444441 0.83333343 7097928
0.10366666 -0.08477778 0.83488894 7032135
0.11433335 -0.085000008 0.83600003 6966599
0.12444445 -0.085222214 0.83711118 6243648
0.13477778 -0.085333332 0.83811122 6243904
0.14350002 -0.08533334 0.83800012 6182753
-0.063000001 -0.07433334 0.833 6177087
0.025666669 -0.072000004 0.8300001 6638148
0.033500001 -0.074000008 0.83033341 3748407
0.042875003 -0.074374996 0.82999998 5521472
0.053333338 -0.074000001 0.83088887 7294538
0.063333333 -0.074000001 0.83155549 7229001
0.073333338 -0.074333332 0.8319999 7228999
0.083333343 -0.07433334 0.83300006 7097670
0.093666673 -0.074666664 0.83444452 7097671
0.10377778 -0.074777782 0.83588886 6966085
0.11433334 -0.075000003 0.83699995 6966085
0.12466668 -0.075222224 0.83811116 5125683
0.1348889 -0.075333342 0.83900011 5784384
0.14350002 -0.075333335 0.83866674 6051678
-0.063000001 -0.064333342 0.83166671 6110776
0.014285715 -0.063571431 0.82999998 6966856
0.023333333 -0.063999996 0.83011109 6373687
0.033333331 -0.064000003 0.8304444 3419701
0.043333337 -0.064000003 0.8306666 5981250
0.053333338 -0.063999996 0.83144444 7294536
0.06333334 -0.064333349 0.83255553 7228742
0.073333345 -0.064333335 0.83311123 7228743
0.083444446 -0.064444453 0.83422232 7031877
0.093666673 -0.064666666 0.83533335 6966341
0.10366666 -0.064666666 0.83633333 6900549
0.11433335 -0.064888895 0.83766675 6834756
0.12400001 -0.065375008 0.83850014 6308669
0.13450001 -0.067000002 0.83900005 6375748
0.14350002 -0.065333337 0.83883333 5000021
-0.064400002 -0.053600002 0.83339995 9727846
-0.0044999998 -0.052500002 0.83000004 5192249
0.0041428572 -0.053142857 0.82999998 7360587
0.013333333 -0.054000005 0.83022225 7229257
0.023333333 -0.053999998 0.83088887 5059887
0.033333335 -0.054000005 0.8304444 3221807
0.043333337 -0.054000005 0.83122224 6703942
0.053333338 -0.054222222 0.83255553 7228743
0.06333334 -0.054333333 0.83311123 7163205
0.073333345 -0.054333333 0.83422226 7097413
0.083666667 -0.054444447 0.83522224 7031877
0.093666673 -0.054666668 0.83588892 6900804
0.10388889 -0.054666668 0.83688885 6769218
0.11433334 -0.054777782 0.83811122 6835012
0.1235 -0.056000005 0.83883339 4796459
0.13800001 -0.058000002 0.83900005 5390655
0.142 -0.055000003 0.83900005 6842481
-0.064000003 -0.044166669 0.83200002 7951951
-0.0029999998 -0.044 0.8300001 7491916
0.0036666666 -0.044 0.82999998 7294792
0.013333334 -0.044000003 0.83033335 7228743
0.023333333 -0.044111118 0.8315556 3023652
0.033333331 -0.044000003 0.83144438 4471100
0.043333333 -0.044111118 0.83211112 6900292
0.053333338 -0.044333335 0.83322233 7162950
0.063333333 -0.044333339 0.83400005 7162949
0.073333338 -0.044333335 0.83500004 7097156
0.083666667 -0.04455556 0.83577782 7031875
0.093666673 -0.04466667 0.83688885 6900547
0.104 -0.044666674 0.83811122 6768706
0.11360002 -0.046800006 0.83900005 6769221
0.12100001 -0.048 0.83900005 6441284
-0.065499999 -0.034000002 0.83337504 8346451
-0.0037500001 -0.03325 0.83000004 7425866
0.0036666666 -0.034000002 0.8305555 6768963
0.013333333 -0.034111116 0.83077776 6505792
0.023333333 -0.034333333 0.83155555 3089702
0.033333331 -0.034333337 0.83300012 5390141
0.043333337 -0.034333333 0.83355564 6768964
0.053333338 -0.034333333 0.83422232 7097157
