# .PCD v0.7 - Point Cloud Data file format
VERSION 0.7
FIELDS x y z rgb
SIZE 4 4 4 4
TYPE F F F U
COUNT 1 1 1 1
WIDTH 1130
HEIGHT 1
VIEWPOINT 0 0 0 1 0 0 0
POINTS 1130
DATA ascii
0.027125001 -0.092250004 0.212125 2235163
0.032333333 -0.092333324 0.21158336 9866896
0.057500005 -0.092500024 0.21071431 11908802
0.06133334 -0.092666671 0.21333335 11514303
0.027625 -0.089499995 0.21062501 2300443
0.031428572 -0.089000002 0.21200001 11051169
0.058000006 -0.088000014 0.211 11646144
0.060888894 -0.088000007 0.21344447 11448510
0.026571428 -0.082285717 0.21242857 2563099
0.030857144 -0.082285717 0.21142857 14604504
0.058000002 -0.082545452 0.21100001 11579839
0.0605 -0.082500003 0.21350002 11448510
0.024 -0.077500001 0.21400002 2431770
0.026666667 -0.077222213 0.2121111 5062977
0.030600002 -0.076800004 0.2114 16249330
0.057857152 -0.077142857 0.211 11448253
0.06075 -0.076500006 0.21375002 11316923
0.023500001 -0.071000002 0.21350002 2497563
0.031000001 -0.072000004 0.21300001 16051952
0.058000002 -0.072500005 0.21183336 11316924
0.060750004 -0.072500005 0.21400002 11251132
0.023000002 -0.068571433 0.21257143 2431512
0.027285716 -0.068142861 0.21178575 11115933
0.030000001 -0.067000002 0.21150002 15985645
0.058000006 -0.067450002 0.21200001 11251388
0.060000002 -0.067500003 0.214 11251132
0.023222225 -0.06277778 0.21133333 2760221
0.027083335 -0.062416676 0.2115 12563636
0.056941181 -0.062529407 0.21141176 11316925
0.060000002 -0.0625 0.21400002 11185596
0.022875002 -0.055625003 0.212125 3878189
0.027375 -0.057000004 0.21224999 15787239
0.05688889 -0.05737038 0.21170367 11251133
0.060000002 -0.059500001 0.21400002 11316668
0.022500001 -0.053250004 0.2115 3219745
0.026625 -0.052625 0.21225001 15983846
0.056647059 -0.052470595 0.21164708 11185341
0.021928573 -0.048285723 0.2117143 5851466
0.025833333 -0.048000004 0.21116668 16115176
0.056500003 -0.048 0.21195455 11119548
0.019000001 -0.041500002 0.21400002 3548968
0.020625001 -0.041125003 0.21237502 3549224
0.02575 -0.041000001 0.21125001 16115177
0.054000001 -0.041800003 0.21000001 11053499
0.057321433 -0.042500008 0.21235715 11053499
0.0255 -0.039000001 0.21200001 16049640
0.054000001 -0.0372 0.21000001 11118778
0.057117652 -0.037529405 0.21241176 11053499
0.018571431 -0.033142857 0.21128573 4206896
0.020800004 -0.033399999 0.21280003 4667447
0.054000001 -0.033000004 0.21000001 11052983
0.056666672 -0.033055555 0.21222225 10987705
0.054000001 -0.028166667 0.21000002 11118777
0.056650005 -0.027799999 0.21235001 10987705
0.053999998 -0.02257143 0.21000002 10921913
0.056740738 -0.022555554 0.21248148 10921912
0.053714287 -0.017285718 0.21057144 10527154
0.056526311 -0.017631583 0.21263158 10921399
0.053999998 -0.012285715 0.21014287 10855863
0.05644444 -0.012518517 0.21255553 10921143
0.054000001 -0.0066666673 0.21066667 10790329
0.056285717 -0.0069047622 0.21252382 10855865
0.018000001 -0.003 0.21400002 6969946
0.054000001 -0.0025000002 0.21075001 10658743
0.056000005 -0.0025000002 0.21216667 10724537
0.025 0.0040000002 0.21400002 14997205
0.053454552 0.0021818185 0.21063636 9935275
0.056000002 0.0018333335 0.21272224 10658742
0.017090911 0.0060909092 0.21154547 5653568
0.022333333 0.0058888886 0.21266669 11904422
0.025 0.0070000002 0.21300001 14996692
0.053500008 0.0069166669 0.2105 10461362
0.055785716 0.0067857141 0.21278575 10527156
0.016833333 0.012833335 0.21216668 5982787
0.022181818 0.013363635 0.21163636 13154230
0.053125001 0.012312502 0.210875 10461618
0.055999998 0.012333333 0.21341668 10461362
0.017666668 0.015666667 0.21133335 2759708
0.022 0.015166667 0.21249999 11114905
0.052999999 0.017277779 0.211 10329777
0.056200005 0.017000001 0.21350002 10330034
0.017444445 0.021555556 0.21222225 4930616
0.022 0.021928573 0.21257143 11115417
0.025 0.022000002 0.21233334 14799827
0.0529375 0.022125 0.2109375 10198190
0.055999998 0.021666666 0.21350002 10264239
0.0178 0.028600002 0.21180001 6640974
0.022000002 0.0285 0.2112 11049109
0.025 0.028333336 0.21200001 14471631
0.052923076 0.026615383 0.21092309 10132653
0.055599999 0.027400002 0.21360001 10198702
0.0185 0.030500002 0.21350002 3878958
0.021200001 0.030400002 0.21260002 7957353
0.05276471 0.032058824 0.21105881 10132653
0.055500001 0.032000002 0.21350002 10133166
0.017857144 0.036428571 0.21228573 5917765
0.022117648 0.036588237 0.21170591 9602177
0.025333336 0.037 0.21300001 14273996
0.052941173 0.037117645 0.21094118 10132909
0.055142861 0.036428574 0.21314289 10133166
0.0090000005 0.044000003 0.21400002 6837839
0.011666667 0.043000001 0.21250002 6574923
0.016875001 0.043125004 0.21150002 5917510
0.022222223 0.042666666 0.21200003 8549232
0.0255 0.043000005 0.21200001 14076618
0.053062506 0.041937508 0.21112502 10132654
0.055 0.042000003 0.21380003 10132654
0.013 0.045000002 0.21400003 6903376
0.017666668 0.045000002 0.21266668 5325890
0.020600002 0.047000002 0.21180001 4799804
0.052499998 0.046850003 0.21124998 10066860
0.055857144 0.047000002 0.21385716 10001324
0.0085000005 0.051000003 0.21400002 6444107
0.011666668 0.051000003 0.214 6180681
0.018428573 0.050714288 0.21214287 5588803
0.022142859 0.051928576 0.21214285 6115149
0.026000001 0.050444447 0.21222223 14142666
0.051736843 0.052210525 0.21078949 10001582
0.055142861 0.051714282 0.21314289 9935789
0.0075454544 0.058000002 0.21372728 6311753
0.011416667 0.057249997 0.21308334 5786182
0.017214287 0.05778572 0.21221431 5589060
0.022000004 0.05712501 0.2113125 5128768
0.026363635 0.057272729 0.21200003 12958392
0.052000005 0.056900006 0.21100001 10001325
0.055 0.057000004 0.21400002 10001326
0.012200001 0.064000003 0.21340001 5325892
0.016600002 0.064000003 0.2124 5260612
0.022416668 0.06333334 0.2115 4865855
0.027357144 0.062928572 0.2117143 12037289
0.052416671 0.062124994 0.21137498 9935789
0.055 0.062000006 0.21380003 9869997
0.012117647 0.066 0.2129412 5655110
0.017000001 0.065882355 0.21294117 5260868
0.022210529 0.066947363 0.21221055 4471867
0.027285716 0.067214288 0.21314289 10853017
0.030000001 0.069000006 0.21150002 13616321
0.052260876 0.066956528 0.21130435 9869737
0.055333335 0.066333339 0.21333335 6777470
0.0090000005 0.072000004 0.21400002 5326915
0.012333334 0.072500005 0.21366668 5260869
0.017142858 0.07252381 0.21333334 4932162
0.022000002 0.071583338 0.21208335 4668991
0.026928576 0.071071431 0.21157143 8287604
0.030333335 0.073666669 0.21266668 13485250
0.052428577 0.072071433 0.2117143 9869738
0.055285718 0.071571425 0.21371429 8488344
0.022300001 0.077600002 0.21350002 4208697
0.02575 0.078500003 0.21325001 4471868
0.030636365 0.076727279 0.21209092 13222591
0.052227281 0.077181816 0.212 9869994
0.055000003 0.075500004 0.21400002 9738410
0.049000002 0.083000004 0.21100001 10330024
0.051714282 0.081809536 0.21219049 10001578
0.055000003 0.083000004 0.21400003 9935785
0.048833337 0.086666673 0.21100001 10395816
0.052333333 0.086466685 0.21286669 10198953
0.02675 0.098750003 0.21400002 13091513
0.031444445 0.098333329 0.21300003 12565428
0.036800001 0.098800004 0.21300001 12499380
0.042000007 0.099000007 0.21300001 12105394
0.047333337 0.098222226 0.21300003 12236724
0.056583334 0.097999997 0.21325003 11120828
0.045500003 0.1 0.21300001 11513516
0.059000004 0.1 0.21400002 10923707
0.060000002 0.1 0.21400002 10792119
0.0082857143 -0.11728572 0.219 16645629
0.011818183 -0.11781818 0.21731816 16580093
0.016666669 -0.11813333 0.2154 16645629
0.0040000002 -0.11000001 0.21900001 16645629
0.0074347835 -0.11230437 0.21765217 16579836
0.011736842 -0.11294737 0.21584213 16645629
0.015666667 -0.11433334 0.21500002 16645629
0.0029166669 -0.10716667 0.2185 12828342
0.0069199991 -0.10712001 0.21656002 13025721
0.010500001 -0.1075 0.21675001 10523529
0.022000002 -0.10600001 0.21800001 4864042
0.06666667 -0.10708334 0.21599998 11318210
0.0080000004 -0.105 0.21499999 5984578
0.023666667 -0.10466667 0.21666668 4798506
0.027071429 -0.10307143 0.21685715 3681318
0.032357145 -0.10214285 0.21664287 3549735
0.035333332 -0.10211112 0.21688892 14603988
0.064000003 -0.10300001 0.215 11251901
0.066850007 -0.10275 0.21690002 11054521
0.07 -0.10300001 0.21800001 10462642
0.013666667 -0.095666669 0.21866667 1972504
0.017000001 -0.09624999 0.21775 2630434
0.021937503 -0.097125009 0.2175625 2563869
0.026166668 -0.097666673 0.21591668 2432283
0.032499999 -0.097357146 0.21621428 8484472
0.063600004 -0.096999995 0.215 11382973
0.066166669 -0.097555563 0.21711111 11317180
0.012714286 -0.092499994 0.21792857 2169112
0.016909093 -0.092136376 0.21554546 1971990
0.021863639 -0.092363641 0.21563634 2169369
0.026124999 -0.092250004 0.21625002 2234905
0.032000002 -0.09242858 0.21657145 9866379
0.063500002 -0.092500001 0.21550001 11382718
0.066428572 -0.092714295 0.21742858 11316925
0.0086666672 -0.086333334 0.21866667 2366234
0.012333333 -0.087416679 0.21791668 2169369
0.01667857 -0.088285699 0.21650004 2432540
0.020555556 -0.087444454 0.21844445 2432027
0.027249999 -0.087500006 0.21875 2497564
0.031599998 -0.087600008 0.2164 15722728
0.06344445 -0.087777779 0.21544446 11382972
0.065900005 -0.088199995 0.2177 11317179
0.0085000005 -0.085000001 0.21850002 2497306
0.011999999 -0.084384613 0.21753846 2299671
0.017066667 -0.084066659 0.21693335 2168856
0.021900002 -0.082999989 0.21810003 2169111
0.027090909 -0.08304546 0.21677275 5918541
0.030571431 -0.082285717 0.21714285 16249585
0.063166671 -0.082499996 0.21550001 11448511
0.066111118 -0.082500003 0.21800002 11317181
0.0090000005 -0.078000002 0.21900001 2102805
0.012399999 -0.078400001 0.21830001 2037268
0.017000001 -0.078400001 0.21800002 2234390
0.021875001 -0.078249998 0.217125 2432026
0.026250001 -0.076750003 0.21850002 5853006
0.030250002 -0.075500004 0.21675 16051952
0.062749997 -0.076750003 0.21574998 11251130
0.066153847 -0.077230774 0.21815386 11251386
0.0185 -0.072000004 0.21900001 2431514
0.021800002 -0.072000012 0.2174 2169111
0.027333334 -0.072000004 0.21550001 9931659
0.030750001 -0.073250003 0.2155 16051952
0.063000001 -0.072500005 0.21600001 11251130
0.066000007 -0.072666667 0.2185 11185593
0.022875002 -0.067499995 0.217375 4667701
0.027181821 -0.067363642 0.21663636 13221565
0.062842108 -0.067578956 0.21657893 11185595
0.065333337 -0.067500003 0.219 11185339
0.013333333 -0.064000003 0.21900003 2365461
0.016000001 -0.064000003 0.21900003 2496530
0.0222 -0.0634 0.2172 3877672
0.026857143 -0.061714292 0.21671428 14997465
0.062615387 -0.062538467 0.21676922 11119803
0.065000005 -0.064000003 0.21900001 11185338
0.021500001 -0.056400001 0.21709999 4009261
0.026749998 -0.058000002 0.21625 15458273
0.062000006 -0.057500001 0.21666668 11185340
0.022000002 -0.052200001 0.2184 6707030
0.027285712 -0.053428572 0.21700001 16049894
0.061764702 -0.052588232 0.21676473 11185085
0.019000001 -0.049000002 0.21725 3154723
0.021666666 -0.049333334 0.21600001 8943479
0.026000001 -0.048333332 0.21700001 16115176
0.061759997 -0.047880001 0.21676001 11054012
0.065000005 -0.048 0.21900001 11054012
0.0185 -0.041750006 0.21725 3812396
0.022636365 -0.042000003 0.21645452 11312028
0.026000001 -0.042999998 0.2175 16115176
0.0625 -0.0425 0.2175 11053755
0.019000001 -0.036000002 0.21700001 5522498
0.021000002 -0.036000002 0.21700001 9470079
0.0255 -0.039000001 0.21700001 16049383
0.061785717 -0.037714284 0.21707144 10988220
0.017333334 -0.033000004 0.21600001 5719879
0.022 -0.033666667 0.21766667 11048599
0.025999999 -0.033833336 0.21816666 15852004
0.059000004 -0.033 0.215 10922425
0.061722226 -0.032888893 0.21733336 10922426
0.018333333 -0.026500002 0.21766669 4338741
0.021333335 -0.026000001 0.21766667 8877944
0.0255 -0.027000001 0.21700001 15786209
0.059000004 -0.028999999 0.21499999 10987705
0.061904758 -0.02809524 0.21723811 10922168
0.019000001 -0.025 0.21700001 6114636
0.024 -0.025 0.21700001 15654881
0.025 -0.025 0.2155 15720416
0.061857142 -0.02257143 0.21700001 10790584
0.061882354 -0.017411767 0.21723531 10724534
0.017000001 -0.010714286 0.21757142 3812140
0.059000004 -0.010000001 0.215 10986938
0.061458331 -0.012916666 0.21725 10724534
0.016833335 -0.0086666672 0.21783334 5916745
0.059000004 -0.0056666671 0.21499999 10790330
0.061055556 -0.0069444454 0.21705556 10724792
0.01714286 -0.0021428573 0.21700001 5851464
0.025 -0.0020000001 0.21700001 15128536
0.059000004 -0.0024999999 0.215 10724536
0.061000001 -0.0025000002 0.21700001 10724537
0.017666666 0.0013333334 0.21750002 4140331
0.024 0.0040000002 0.21800001 14997205
0.025 0.0015 0.21800001 15128281
0.059000004 0.0018333333 0.21500002 10592950
0.061277773 0.0018333335 0.21750002 10527670
0.016142858 0.0068571432 0.21742858 4732981
0.021888889 0.0063333334 0.21655557 13878211
0.025 0.0080000004 0.21900001 14996692
0.058600008 0.0075000003 0.2155 10461620
0.061071429 0.0070714289 0.21800001 10461877
0.012500001 0.014 0.21825001 7232342
0.01575 0.0135 0.21725 6640460
0.0218 0.012999999 0.2172 12957107
0.058500003 0.011999999 0.21560001 10395827
0.061000008 0.012 0.21830001 10396084
0.014 0.015000001 0.21900001 2693916
0.016000001 0.015333335 0.21666665 2431001
0.022000002 0.015000001 0.21600001 14668240
0.025 0.016000001 0.21800001 14930899
0.058500011 0.01675 0.21633333 10395570
0.061000004 0.016625002 0.21837501 10396084
0.016500002 0.022000002 0.21716668 5128508
0.022166668 0.021333337 0.21666668 12299435
0.025 0.022 0.2175 14734290
0.058000002 0.022166666 0.21600001 10395827
0.061000001 0.022000002 0.21900001 10396341
0.0070000002 0.029000003 0.21880002 7692372
0.011833333 0.029000001 0.219 7363922
0.016600002 0.028800001 0.21760002 6048838
0.022600001 0.028000001 0.2158 12694449
0.057833333 0.02675 0.21583332 10330290
0.060666665 0.027333334 0.21866667 10265011
0.0080000004 0.030000001 0.21900003 7956060
0.011833333 0.030000001 0.2185 7692891
0.016000001 0.030250002 0.21700002 6509388
0.022500001 0.031500001 0.21600001 9076092
0.025 0.031000001 0.215 14406095
0.058166668 0.031916667 0.21633334 10199218
0.060500003 0.031999998 0.21850002 10199218
0.0040000002 0.037 0.21866667 7429457
0.0066249999 0.036875002 0.21737501 7363664
0.012 0.0374 0.2167 7232594
0.016700003 0.037300002 0.21709999 5917766
0.021250002 0.037500001 0.21675001 7167836
0.026000001 0.035 0.21900001 14405583
0.057733342 0.0372 0.21600001 10133424
0.060142856 0.036428571 0.21814288 10199218
0.0035000003 0.043500002 0.21783334 7034959
0.0067777783 0.043777779 0.21666667 6706253
0.011833333 0.044000003 0.21816669 5983558
0.018000001 0.042250004 0.21675001 4471095
0.022142857 0.041857149 0.21728574 9141627
0.025833333 0.041000005 0.21766669 14273997
0.058058828 0.041941181 0.21605884 10132910
0.060199998 0.042000003 0.21900001 10198961
0.003 0.045000002 0.21900001 7232081
0.0075000003 0.045500003 0.21825001 7232082
0.010666667 0.045000002 0.21566667 7100498
0.017000001 0.045750003 0.21575001 5917512
0.022 0.047000006 0.21780002 6509907
0.026666665 0.047000002 0.21766667 14142666
0.057928581 0.04678572 0.21621428 10067118
0.060857143 0.047571428 0.21885715 10132912
0.0028000004 0.051399998 0.21800001 6903630
0.0066428571 0.051571429 0.21700001 6575181
0.011727273 0.051636361 0.21745457 6115401
0.017181821 0.051636364 0.21636365 5457218
0.022166669 0.050833333 0.21633333 6114893
0.026222222 0.051888894 0.21688889 14011081
0.057066668 0.052066669 0.21606666 9936047
0.060500003 0.052000005 0.21849999 9936047
-0.001 0.058000002 0.21900001 7034702
0.002647059 0.058058828 0.21752943 6640459
0.0063333334 0.057444453 0.21633334 6114631
0.012142858 0.058428578 0.21557143 5983304
0.017333334 0.05716667 0.21583335 4537402
0.022 0.056199998 0.21700001 4734267
0.026571427 0.056000002 0.21742859 13879495
0.057500001 0.056937508 0.21618751 9870253
0.060285717 0.056571431 0.21857144 9804717
0.0029999998 0.060000002 0.21800001 6706510
0.0068181828 0.061181821 0.21754545 5062461
0.01169231 0.062307693 0.2176154 5260354
0.01675 0.061000004 0.21875001 5589577
0.021928569 0.062428568 0.21700001 4011060
0.026699999 0.062200002 0.2167 12234925
0.057750009 0.061875001 0.21618751 9738924
0.060000002 0.061999999 0.21900001 9738925
0.0040000002 0.066 0.21900001 5654854
0.0069999998 0.066407405 0.21737038 5523525
0.011444444 0.067888893 0.2158889 4865855
0.01725 0.067750007 0.21662501 4340026
0.020833334 0.06683334 0.21666668 3879732
0.026714286 0.068000004 0.21600001 8352884
0.057916671 0.06683334 0.21633333 6449018
0.060500007 0.067166671 0.219 9409960
0.0036666666 0.073666669 0.21900003 5655367
0.0069999998 0.072125003 0.21716666 5195074
0.011823529 0.070999995 0.21617649 4800575
0.017250001 0.070666663 0.2166667 4208954
0.021142857 0.07114286 0.21614286 3880761
0.026833333 0.071666665 0.21591665 7366246
0.057230774 0.072230771 0.21623078 8225943
0.060000002 0.072000004 0.21900001 9410218
0.0073000006 0.0757 0.21800001 4866367
0.012136363 0.077318184 0.21768183 4340281
0.016818183 0.077363648 0.21668182 4142646
0.021611115 0.077055566 0.21599999 3682610
0.026545458 0.077636369 0.21727274 5327178
0.030000001 0.076800004 0.21600001 13222592
0.0573125 0.077187508 0.2164375 9607595
0.060000002 0.077000007 0.21900001 9476522
0.0175 0.080250002 0.21775001 4800831
0.022400001 0.080600001 0.2164 4800832
0.026500002 0.081000008 0.21700001 5392968
0.030000001 0.080000006 0.21700001 13091519
0.057500012 0.08200001 0.2165 9673130
0.060600005 0.082000002 0.21900001 9476265
0.001 0.087600008 0.21900001 14998989
0.0050000004 0.087000005 0.21900001 13420211
0.023250001 0.087000005 0.2175 3813934
0.026363635 0.086727284 0.21781822 5392193
0.030000001 0.088000007 0.21800001 7169371
0.056833334 0.086777784 0.21605556 10199472
0.060700007 0.087699994 0.21849999 10463417
0.057818186 0.091818184 0.21572728 10923194
0.061333332 0.092055567 0.21788892 10594744
0.0090000005 0.098000005 0.21900001 14801358
0.0135 0.099000007 0.21800001 14275013
0.017000001 0.099000007 0.21700001 13880001
0.022333337 0.098666675 0.21533334 13354428
0.025 0.099000007 0.215 13354170
0.058250003 0.095750004 0.215 10923450
0.061857142 0.097000018 0.2167857 10529207
0.065750003 0.097750008 0.21900001 10200501
0.011857144 0.10057144 0.21871428 14341319
0.017000001 0.10040001 0.2172 13814974
0.021000003 0.1 0.21600001 13420218
0.0625 0.1005 0.2165 10397878
0.065666668 0.10133334 0.21866667 10134708
0.0024000001 -0.11680001 0.2225 16580092
0.0061999997 -0.1183 0.22020002 16579836
-0.0012500001 -0.11125001 0.22375001 16645627
0.0018095238 -0.11266667 0.22166672 16580092
0.0053333337 -0.11466667 0.22000001 16645629
-0.0019000001 -0.10700001 0.2229 9601137
0.0012000001 -0.1067 0.22130004 9271917
0.0070000002 -0.10700001 0.22320001 4598294
0.012250001 -0.10725001 0.22200002 4269846
0.016666668 -0.10866667 0.22366667 4335896
0.022222223 -0.10688889 0.2218889 4404005
0.025 -0.10600001 0.22400001 3023649
0.013 -0.101 0.22400001 2234390
0.022500001 -0.1015 0.22275002 2366233
0.0262 -0.1036 0.22150001 2695197
0.070666671 -0.10133334 0.22166669 11317697
0.0081111109 -0.09633334 0.22288889 2103831
0.011499999 -0.097625002 0.22162503 2695969
0.017000001 -0.099399999 0.22040001 2168597
0.024 -0.1 0.22000001 2300696
0.069000006 -0.09700001 0.22040002 10988475
0.071000002 -0.1 0.22350001 11252418
-0.0050000004 -0.091000006 0.22400001 2497563
-0.0035000001 -0.091000006 0.22400001 2563355
0.0080625014 -0.092625 0.22206253 2695198
0.010875 -0.091875009 0.220375 3287592
0.022500001 -0.092000008 0.22166669 2629661
0.027100001 -0.092100009 0.22280002 2563099
0.031999998 -0.091250002 0.22250001 13814732
0.069000006 -0.093000002 0.22100002 11185597
0.070500001 -0.091500007 0.22400001 11448768
-0.0055 -0.090000004 0.22400001 2497562
-0.0040000002 -0.090000004 0.22400001 2563611
0.0075833336 -0.088083349 0.22200002 2431770
0.011200001 -0.0898 0.22040001 2037525
0.019000001 -0.086000003 0.22200002 4075824
0.022727275 -0.087727278 0.22209094 2300441
0.026833335 -0.089166671 0.22150002 2694686
0.03125 -0.089000002 0.22125001 13222339
0.068000004 -0.088 0.22 11382718
0.07 -0.087750003 0.22250001 11317181
0.0074800001 -0.082200013 0.22167999 2694684
0.012000001 -0.082727268 0.2215455 3682092
0.017250001 -0.083149984 0.22220004 3945008
0.022187501 -0.083312504 0.22225001 2761248
0.025 -0.084333338 0.22066669 6050383
0.030333335 -0.083666675 0.22066669 15919850
0.069000006 -0.082400002 0.221 11251388
0.070833333 -0.08183334 0.223 11317180
0.0073181819 -0.077545442 0.22213636 2892320
0.011222222 -0.077444449 0.22255558 2497819
0.015000001 -0.079000004 0.22400001 2694425
0.022500001 -0.078000002 0.22200002 2497561
0.026750004 -0.07683333 0.22175002 6181458
0.030000001 -0.076500006 0.22100002 16117745
0.068000004 -0.077000007 0.22 11251643
0.070666663 -0.077 0.22266668 11382716
0.0086000003 -0.073200002 0.22240002 2300440
0.011642857 -0.072428584 0.22214286 2168597
0.017000001 -0.072999999 0.22187501 2168597
0.021833336 -0.072333343 0.22116669 2957598
0.027000001 -0.074000001 0.22000001 13615553
0.067750007 -0.072125003 0.22075 11250873
0.071000002 -0.072500005 0.22300002 11382202
0.0080000004 -0.065000005 0.22266668 2497044
0.012500001 -0.066 0.22275001 2168853
0.017000001 -0.065000005 0.22100003 2103061
0.022 -0.067000009 0.22166669 3418405
0.027200002 -0.069000006 0.22150001 13550273
0.067812502 -0.067562498 0.22162502 11119802
0.071076922 -0.067923084 0.22361539 11119546
0.011 -0.064000003 0.22066669 2299666
0.018000001 -0.064000003 0.22100002 1971475
0.023000002 -0.062800005 0.223 5653312
0.026666669 -0.062666669 0.22333336 15918824
0.067466669 -0.062399998 0.22160003 11119546
0.071000002 -0.064000003 0.22400001 11054010
0.014 -0.059000004 0.22400001 2299671
0.016750002 -0.057750005 0.22258335 2431256
0.022666669 -0.057666671 0.22166668 6245963
0.026333334 -0.058666665 0.22266668 15853030
0.067153849 -0.057423074 0.22169234 10988475
0.014 -0.051000003 0.22400001 2497562
0.016666668 -0.051166669 0.223 2234907
0.021500003 -0.053500004 0.223 3351587
0.025333332 -0.052666668 0.22166669 15983846
0.066625006 -0.052500002 0.22150002 10988475
0.018000001 -0.050000001 0.22400001 3286568
0.021666668 -0.048333332 0.22233336 9535100
0.026999999 -0.047750004 0.222 16049640
0.067235291 -0.048117641 0.22176473 10988475
0.07 -0.047000002 0.22400002 10922427
0.018200001 -0.042599998 0.22200003 3615273
0.022500001 -0.042833339 0.22083336 12891060
0.026000001 -0.043500002 0.22225001 16049639
0.066950001 -0.042450007 0.22175002 10922428
0.07 -0.044500001 0.22400001 10988221
0.018000001 -0.036000002 0.22000001 3483430
0.021000002 -0.037 0.22000001 5784900
0.027000001 -0.037500001 0.22300002 15852259
0.064000003 -0.037 0.22000001 10922428
0.066999994 -0.037499998 0.22200002 10791099
0.017333334 -0.034000002 0.22233336 5785415
0.023200002 -0.033999998 0.22220001 15917797
0.025833331 -0.033166666 0.22100002 15786466
0.064000003 -0.033500001 0.22000001 10922428
0.067166664 -0.032777783 0.22227781 10856378
0.017800001 -0.027200002 0.2218 5127999
0.022200001 -0.026799997 0.22210002 13812676
0.026333334 -0.029000001 0.22133334 15720417
0.067090921 -0.028090911 0.22218186 10790585
0.0185 -0.022500001 0.22275001 4535347
0.020000001 -0.022500001 0.22350001 4666678
0.026000001 -0.024 0.22200002 15720675
0.067076921 -0.022346152 0.22203848 10790842
0.017500002 -0.018333333 0.22250001 4470069
0.066562504 -0.017625002 0.22175002 10724792
0.017000001 -0.01175 0.22100002 4733240
0.020000001 -0.010500001 0.22300002 4667449
0.026000001 -0.010500001 0.22250001 15260122
0.064000003 -0.011 0.22000001 10658999
0.066550002 -0.01235 0.22215001 10659256
0.017666668 -0.0068333335 0.22316666 4337453
0.026000001 -0.0085000005 0.22250001 15128538
0.064000003 -0.0071666669 0.22000001 10724792
0.066235296 -0.0071764709 0.22205883 10659256
0.016999999 -0.0030000003 0.22100002 4601139
0.023999998 -0.0020000001 0.222 15194330
0.025250001 -0.0025000002 0.22050002 15194072
0.064000003 -0.0024999999 0.22000001 10659256
0.066333331 -0.0025000002 0.22225003 10593719
0.017333332 0.0013333334 0.222 4864054
0.022666669 0.0026666669 0.22266667 12232874
0.025600001 0.0014000001 0.22120002 15062488
0.064000003 0.0018333333 0.22000001 10527671
0.066444457 0.0018333335 0.22244446 10527671
0.013400001 0.0066 0.22239999 4930359
0.016000001 0.0080000004 0.22150001 4272946
0.022500001 0.0073333341 0.22233333 14733521
0.0255 0.0090000005 0.22300002 14865107
0.063625 0.007375 0.22050002 10462134
0.066272736 0.0068181823 0.2228182 10527415
0.0080000004 0.014000001 0.22400002 7889753
0.012000001 0.014 0.222 7692888
0.017333334 0.012333333 0.22166668 4075049
0.022 0.012 0.22250001 9799043
0.025 0.012 0.22000001 14931156
0.063500009 0.011666668 0.22066669 10527669
0.066500001 0.012000001 0.22350001 10462134
0.0040000002 0.015000001 0.22400001 8416357
0.0071111117 0.015333335 0.22311112 6574411
0.011285715 0.015428572 0.22185718 4601140
0.018333334 0.016666668 0.22100002 3943468
0.022333333 0.016333334 0.22133334 14601935
0.026000001 0.017000001 0.223 14799314
0.063000008 0.017230768 0.22100003 10396084
0.066299997 0.017000001 0.22330001 10265012
0.0072222226 0.022555556 0.22266668 7955803
0.012333334 0.02266667 0.22213337 6574925
0.016666668 0.022333333 0.22150002 3812393
0.022600001 0.021800002 0.22160001 12431535
0.025333336 0.021333335 0.22133334 14799570
0.062545456 0.021818183 0.22054547 10330548
0.065499999 0.022166668 0.22341667 10264754
0.0070000002 0.029000003 0.22380002 6377544
0.010000001 0.029000001 0.22400001 5785922
0.017000001 0.029000001 0.223 5128508
0.021600001 0.027000001 0.2234 8615541
0.0255 0.028000001 0.22100002 14537424
0.062636368 0.027090909 0.22063637 10265011
0.065499999 0.026999999 0.22340003 10265012
0.0030000003 0.030166669 0.22150002 8086615
0.0053333337 0.03066667 0.22100002 8021596
0.013333333 0.032000002 0.22366667 4206895
0.017333334 0.031666666 0.22133334 3681836
0.022000002 0.033200003 0.222 10260622
0.0255 0.033 0.22200002 14405839
0.063545458 0.032000002 0.22154546 10133683
0.065399997 0.032400005 0.22340003 10199220
0.0020000001 0.037500001 0.22125001 7823443
0.007125 0.038375001 0.22125 7363925
0.011625 0.037250001 0.220375 6706766
0.016666668 0.036666665 0.22100002 4405299
0.023000002 0.036000002 0.22033334 14142666
0.025 0.035 0.22000001 14339790
0.062933341 0.037266672 0.22100002 10199475
0.065818183 0.037 0.22354546 10199476
-0.011285716 0.043428574 0.22385715 7889236
-0.0070000002 0.043600004 0.22270003 7757650
-0.0028888891 0.044000003 0.22322226 7560273
0.0015714287 0.044000003 0.22271429 6903629
0.0053333337 0.044000003 0.22400002 6049351
0.0175 0.04266667 0.22166668 4668473
0.021714287 0.041857146 0.22185716 8746613
0.025799999 0.041800003 0.221 14273997
0.063000001 0.042000003 0.22100003 10133425
0.065000005 0.041999999 0.223 10133426
-0.0070000002 0.045600004 0.22379999 7757909
0.0019999999 0.045400001 0.222 7363409
0.0050000004 0.046000004 0.22150001 7297875
0.012166667 0.047333334 0.22250001 5259841
0.01675 0.047250003 0.22225 4931648
0.021500003 0.049000002 0.22300002 6115149
0.026250001 0.048 0.22150001 14076874
0.062846154 0.046692308 0.2209231 10067632
0.065714285 0.047428574 0.22371431 10067890
-0.0069090915 0.051181819 0.22372729 7363408
-0.0026666666 0.052222222 0.22277781 7100494
0.0019285716 0.05228572 0.22092859 6706509
0.0063000009 0.0528 0.22150004 6049610
0.014 0.051000003 0.22000001 5392194
0.017000001 0.051600002 0.22200003 4471352
0.021500001 0.050250001 0.222 6378062
0.026250001 0.050250001 0.22350001 14142666
0.062909089 0.052181825 0.22118182 9936047
0.065454543 0.051818181 0.22345456 9936560
-0.010000001 0.057500005 0.22400001 7297103
-0.0068235295 0.057764716 0.22282355 7166030
-0.003 0.058000006 0.22146671 6903116
0.0015454546 0.056636367 0.22227274 5851459
0.0065000001 0.05675 0.22300005 4076593
0.012222222 0.056333337 0.22188891 5655110
0.016545454 0.056818184 0.22309093 4997696
0.022000002 0.057000004 0.22125001 7958125
0.025666669 0.056666672 0.22216666 14011080
0.062846154 0.057538465 0.22115387 9804718
0.065000005 0.057000004 0.223 9804975
-0.0056666671 0.061666667 0.22400002 6903375
-0.0027692309 0.061538462 0.22276925 6377803
0.0022500001 0.062416669 0.22216667 5325633
0.0069000004 0.063800007 0.22070003 4405817
0.012111111 0.06344445 0.22111113 3353131
0.016666668 0.063166671 0.22250001 3419181
0.021666668 0.063500002 0.22066669 3155753
0.025833331 0.063666672 0.22100002 10590102
0.062933333 0.061999995 0.22100002 9607339
0.065888889 0.062222224 0.22344446 9080995
-0.0063636363 0.065454543 0.22372727 6574667
-0.0025882355 0.066294126 0.22247064 6377546
0.0019166666 0.066625006 0.22179168 5851976
0.0051428573 0.066571429 0.2207143 5260867
0.012500001 0.065000005 0.22150001 4406073
0.016625002 0.065250002 0.22237501 4143159
0.020333335 0.065000005 0.22266668 2827559
0.025666667 0.065000005 0.22100002 8418933
0.062799998 0.067000002 0.22093333 7699086
0.066 0.066875003 0.22337501 8159638
-0.0051428573 0.072428577 0.22399999 6180425
-0.0025000002 0.073000006 0.22316669 6114888
0.0021499998 0.072149999 0.22180001 5392195
0.0056666671 0.071111113 0.22066669 4734526
0.062214281 0.072142854 0.22092859 8489115
0.065375 0.071624994 0.22337502 9081253
-0.0017500001 0.07525 0.22325002 5917769
0.0023750002 0.076875001 0.22243753 5194817
0.0065000001 0.078083336 0.22091667 4602938
0.028000001 0.077888884 0.22166668 8024433
0.030000001 0.079000004 0.22200002 13157312
0.062714294 0.077000007 0.22135718 9476010
0.065400004 0.077000007 0.2236 9410473
0.0040000002 0.080000006 0.22400001 5194816
0.0068333335 0.080333345 0.22233336 5063232
0.012 0.0814 0.22200003 4931901
0.0174 0.082200006 0.22180001 4866623
0.022000002 0.082500003 0.22050001 5063746
0.027999999 0.081166677 0.22150002 6709087
0.032666665 0.083000004 0.22233333 12959419
0.062857144 0.081857145 0.2214286 9476265
0.065666668 0.082333334 0.22366667 9476266
-0.0050000004 0.087500006 0.22375001 15195593
-0.0026000002 0.08746668 0.22193335 12103581
0.0016666668 0.088 0.22216667 10524036
0.0055 0.088000007 0.222 8879468
0.019000001 0.089000002 0.223 6904138
0.022058826 0.087058842 0.22217649 5062972
0.026749998 0.08662501 0.22225001 4273718
0.032000002 0.089000002 0.22400001 9405569
0.062818177 0.08654546 0.22072726 10266295
0.065999992 0.087333329 0.22308336 10266038
-0.0022500001 0.091666669 0.22275002 15590102
0.00040000002 0.092200004 0.221 15589845
0.0050000004 0.094000004 0.22000001 15392723
0.018000001 0.090000004 0.22400001 6969930
0.063600004 0.091200002 0.22020002 10397367
0.066684216 0.092052639 0.22226319 10266038
0.07 0.094000004 0.22400001 10069174
-0.0013333334 0.096000008 0.22400002 15589332
0.0017500002 0.097666658 0.22275002 15458517
0.0067272736 0.097999997 0.22045456 14998737
0.067214288 0.096928574 0.22107144 10134709
0.070285715 0.097428575 0.22342858 10003124
0.0028333336 0.10116667 0.22366667 15195603
0.0070625003 0.1013125 0.22181253 14801871
0.010000001 0.101 0.22000001 14604492
0.067666672 0.1015 0.22050001 9937330
0.070555553 0.10177778 0.22288889 9740208
-0.0017500001 -0.11625 0.22575001 16645628
-0.00575 -0.11125001 0.22812502 16580090
-0.0028461539 -0.11269231 0.22607693 16580092
0.017000001 -0.11000001 0.22825001 4599840
-0.0063571432 -0.10721429 0.22771432 9863796
-0.0032500003 -0.107 0.2265 7624258
0.0020000001 -0.10733334 0.22633334 4926230
0.012500001 -0.10825001 0.22600001 4204311
0.017750001 -0.109 0.22675002 4599583
0.0222 -0.10700001 0.227 3089695
-0.0070000002 -0.105 0.22900002 5912869
0.0075000003 -0.1015 0.22850001 3748142
0.011666667 -0.10200001 0.22700001 2103061
0.017400002 -0.10340001 0.22740002 2103317
0.022250002 -0.10425001 0.22650002 2366488
0.025 -0.105 0.22500001 2366490
0.074000001 -0.10300001 0.22800002 11318213
-0.0055 -0.095000006 0.22850001 2365976
-0.0023333335 -0.0955 0.228 2431770
0.0021818185 -0.09572728 0.22790909 2497562
0.0063636373 -0.097727276 0.22627273 2827298
0.071600005 -0.097000003 0.22580001 11054524
-0.0070000002 -0.092333347 0.22700003 2497563
-0.0020909093 -0.092272729 0.22609091 3287334
0.0016666668 -0.093833335 0.22783335 2629148
0.0058888891 -0.092888892 0.22666666 3089956
0.023999998 -0.092000008 0.22566669 2300953
0.025500001 -0.092500001 0.22616668 2300441
0.031285718 -0.092714295 0.2257143 12958139
0.072333336 -0.092333339 0.22733335 10922422
-0.0068846149 -0.088038452 0.22673081 3352872
-0.0034444449 -0.089000002 0.22744444 3023907
0.0060000005 -0.087666668 0.22716667 2826528
0.0165 -0.086000003 0.22550002 5459271
0.023500001 -0.086000003 0.22500001 2432796
0.072250001 -0.087250002 0.22675002 11251132
-0.010000001 -0.083000004 0.22860003 3221285
-0.0072333333 -0.082833327 0.22686669 3287078
0.0040000002 -0.081750005 0.22775 2431512
0.0060000001 -0.084000006 0.22580001 2761248
0.014 -0.080000006 0.22900002 2695193
0.017000003 -0.082500003 0.22583336 2826523
0.021750001 -0.080750003 0.22800002 2497305
0.027000001 -0.080000006 0.22800002 9340550
0.072999999 -0.081600003 0.2272 11251387
-0.010444445 -0.077222228 0.22833334 3418665
-0.0086250007 -0.077750005 0.22837502 2958113
0.0064999997 -0.076750003 0.22637503 3682093
0.01188889 -0.077555567 0.22677779 2761504
0.017500002 -0.078000009 0.22700001 5852233
0.022 -0.07675001 0.22750002 2563099
0.02716667 -0.078000002 0.22633334 11708585
0.030000001 -0.078250006 0.22625002 16051952
0.073400006 -0.076400004 0.226 11382460
0.075000003 -0.076500006 0.22850001 11316665
-0.010714286 -0.072285719 0.22814287 2431513
-0.0090000005 -0.07175 0.22825003 2562843
0.0075714285 -0.073285714 0.22642858 2563098
0.0135 -0.074000001 0.22500001 2037012
0.01657143 -0.073142864 0.22585715 3746600
0.021600002 -0.072000012 0.22680001 3943977
0.0275 -0.071000002 0.22550002 15985644
0.073666669 -0.072000004 0.22566669 11251387
0.075500004 -0.072500005 0.22850001 11317182
-0.011466668 -0.06826666 0.22826669 3352870
0.007363637 -0.066000007 0.22663637 2759961
0.012 -0.06585715 0.22628573 3286047
0.016777778 -0.066888899 0.22733334 3286305
0.021400001 -0.068200007 0.22740002 2957855
0.072800003 -0.067000002 0.2253 11053753
0.075636365 -0.067545451 0.22745456 11251388
-0.012500001 -0.063200012 0.22830001 2694684
0.017500002 -0.061000004 0.22850001 2562845
0.023000002 -0.063000001 0.22866668 6114122
0.026428569 -0.063000001 0.2267143 15326430
0.072250001 -0.062499996 0.22600001 11053753
0.075444445 -0.062666669 0.22833334 10921649
-0.013333333 -0.056833338 0.22858334 2891803
0.0085000005 -0.059000004 0.22900002 2562583
0.011777777 -0.058666665 0.22666666 2430999
0.021714287 -0.056857146 0.2274286 8613740
0.026250001 -0.055749997 0.22650002 16115944
0.072210528 -0.057631582 0.22636843 10922682
0.074999996 -0.057500005 0.22900002 10922682
0.0090000005 -0.052000001 0.22900002 2431769
0.011777777 -0.051111113 0.22711113 2892063
0.016555555 -0.052111115 0.227 2892323
0.020000001 -0.054000001 0.22800002 3023394
0.026000001 -0.054000001 0.22600001 15984101
0.071545459 -0.05263637 0.22618181 10791097
0.075000003 -0.052500002 0.22900002 10791097
0.019000001 -0.050000001 0.22800002 6245447
0.022333333 -0.048000004 0.22733335 8745072
0.027250001 -0.048250005 0.22700001 16049640
0.072411761 -0.048117649 0.22694118 10856889
0.075000003 -0.050000001 0.22900002 10791610
0.012499999 -0.044000003 0.22850001 3023649
0.016818183 -0.043363642 0.22718185 3286821
0.020500001 -0.041000001 0.22700001 4599596
0.026500002 -0.0405 0.22700001 15983590
0.072086953 -0.042304352 0.22700001 10856635
0.016999999 -0.037 0.22733335 4009774
0.023500001 -0.037 0.2265 15917797
0.026249999 -0.037500001 0.22700003 15852259
0.07164707 -0.037529413 0.22664708 10725306
0.017666668 -0.034000002 0.228 5784643
0.022 -0.033500001 0.22600001 10456204
0.026250001 -0.031750001 0.22675002 15654880
0.071999997 -0.03327778 0.227 10725048
0.016799999 -0.0276 0.22660001 4799033
0.022500001 -0.026999999 0.22587502 13615040
0.025666667 -0.029000001 0.22700001 15786209
0.07188236 -0.028058825 0.22688234 10790584
0.017000001 -0.020000001 0.22750002 4996156
0.021000002 -0.020000001 0.22900002 15457244
0.025 -0.022500001 0.22700001 15720418
0.071578965 -0.022526318 0.22657894 10725306
0.017200002 -0.017600002 0.22580001 4272176
0.021714287 -0.018571427 0.22700001 13944005
0.025666667 -0.018000001 0.227 15457245
0.069000006 -0.0165 0.22500001 10593720
0.072083339 -0.017500002 0.22733337 10725305
0.016500002 -0.011750001 0.22825001 4930106
0.020000001 -0.012 0.22700001 9141115
0.025333336 -0.011000001 0.22733332 15325915
0.069000006 -0.012166667 0.22500001 10658999
0.071761906 -0.01247619 0.22733337 10593720
0.017416669 -0.0067500002 0.22675 5455935
0.020000001 -0.0090000005 0.22700001 9995911
0.02575 -0.0072499998 0.22725001 15062744
0.069000006 -0.0070000007 0.22499999 10593206
0.071666673 -0.0070000002 0.22753336 10659255
0.016000001 -0.0040000002 0.22700001 3745573
0.021714287 -0.001857143 0.22728573 14602191
0.025 -0.0040000002 0.2265 15325658
0.069000006 -0.0024999999 0.22500001 10593463
0.071833342 -0.0025000002 0.22783335 10527927
0.017600002 0.0022000002 0.227 4600627
0.022 0.0020000001 0.22700001 12759474
0.025 0.0012500001 0.22675002 15062488
0.069000006 0.0018333335 0.22500001 10462135
0.071812503 0.0018125002 0.22781251 10527670
0.0085000005 0.0070000002 0.22850001 3943976
0.012 0.0069000004 0.22649999 5062459
0.015333335 0.0063333339 0.22666669 5522237
0.068555564 0.0072222226 0.22555558 10461878
0.071500011 0.0070000002 0.2282 10396342
0.0029999998 0.014000001 0.228 8415579
0.0053333337 0.014000001 0.22566669 8086618
0.017285716 0.01157143 0.22700003 4009258
0.021000002 0.012 0.22900002 15127762
0.0255 0.011 0.22825003 14865107
0.068571433 0.012000001 0.22557142 10396597
0.070699997 0.012 0.22780001 10330803
0.0024999999 0.015250001 0.22725001 7626583
0.0053333337 0.016000001 0.22600001 3943722
0.017000001 0.017500002 0.2265 3549224
0.022500001 0.017500002 0.22700001 14865106
0.0255 0.0185 0.22675002 14799314
0.068666674 0.017333334 0.22583334 10199474
0.070666671 0.016750002 0.22783335 10199218
0.0030000003 0.022500001 0.22783335 8218717
0.0064285719 0.023285717 0.22585717 5653565
0.011 0.023999998 0.22500001 3615015
0.016666668 0.021000003 0.22633334 4009772
0.021000002 0.020000001 0.22600001 13878209
0.026000001 0.020000001 0.22900002 14734034
0.068000004 0.022 0.2256 10198962
0.071000002 0.022000002 0.22840002 10199475
-0.016000001 0.028500002 0.22900002 8743257
-0.014599999 0.028600002 0.22840002 8809050
0.0024999999 0.029000001 0.22550002 7363664
0.0050000004 0.029000001 0.22500001 6903375
0.012500001 0.029000001 0.22550002 6114630
0.017750002 0.027250001 0.22675002 4010030
0.022500001 0.028250001 0.22650002 13287100
0.0262 0.027000001 0.22760001 14471632
0.068090908 0.026818184 0.22600001 10199219
0.07057143 0.026571427 0.22828574 10199218
-0.016000001 0.034000002 0.22900002 8677466
0.0012000001 0.030800004 0.22700003 7955288
0.0075000003 0.032000002 0.22725001 4404271
0.011 0.032000002 0.22600001 4075566
0.016000001 0.03125 0.22625002 4076078
0.026500002 0.034000002 0.22750002 14339790
0.068416677 0.031666666 0.22641669 10199476
0.070500001 0.032166664 0.22800003 10133940
-0.016000001 0.035749998 0.22875002 8480088
-0.012727273 0.036545459 0.22759095 8349015
-0.0070000002 0.036857147 0.22757144 8282965
-0.0021666668 0.037333336 0.228 7757650
0.0016666666 0.037333336 0.22650002 7035213
0.0068333335 0.037 0.22716667 5260348
0.017500002 0.037 0.2265 4076335
0.021250002 0.035750002 0.22750002 9996678
0.025666667 0.035333335 0.22666669 14339790
0.068500012 0.037 0.22650003 10133684
0.071000002 0.037 0.22880001 10067890
-0.0165 0.042750001 0.22850001 8217431
-0.013473685 0.042473685 0.22631575 7954772
-0.0066666664 0.043166667 0.22733335 7626064
-0.0020000001 0.044000003 0.22500001 7232079
0.0029999998 0.040000003 0.22733335 7692378
0.0080000004 0.044000003 0.22633334 5391681
0.012 0.042375006 0.22725001 4536631
0.017166669 0.041833341 0.22766668 3944496
0.023666667 0.04266667 0.22600001 14142154
0.025 0.043000001 0.2265 14273997
0.067750007 0.041749999 0.22574998 10133426
0.070625007 0.042375002 0.22825 10002098
-0.016000001 0.045000002 0.22900002 7888980
-0.01225 0.046749998 0.22733335 7626322
-0.0071111117 0.047222219 0.22755557 6574410
-0.0025000002 0.046333339 0.22633334 7494738
0.0017500001 0.047500003 0.22675002 7034962
0.0068333335 0.048000004 0.2271667 6114892
0.014 0.045000002 0.22800002 5721161
0.0165 0.045000002 0.22850001 4339509
0.024 0.049000002 0.22500001 13944772
0.067600004 0.046700001 0.22560003 10067890
0.070375003 0.046625003 0.22825001 10002354
-0.016000001 0.050000001 0.22900002 7888980
-0.011923077 0.051500004 0.22726926 7363407
-0.0072500003 0.051375002 0.22643752 7363151
-0.0030000003 0.051500004 0.22633334 6837579
0.0020000001 0.051000006 0.22760002 5260094
0.0073333331 0.051333338 0.22666669 4536888
0.012 0.051999997 0.2272 4931645
0.019000001 0.052000001 0.22800002 3155493
0.023000002 0.051000003 0.22500001 6640465
0.025 0.052000001 0.22500001 14011080
0.068363644 0.052000001 0.22636364 9936305
0.07 0.051999997 0.22800002 10001841
-0.012192308 0.056769237 0.22703846 7297872
-0.0067647062 0.055705883 0.22688234 6377543
-0.0026153848 0.056153849 0.22576925 5654335
0.001888889 0.056555562 0.22522222 4667959
0.0073333331 0.057000007 0.22533335 3155494
0.011999999 0.057866678 0.22766668 3945008
0.017600002 0.057399999 0.22780004 3484718
0.068000004 0.057000004 0.22600001 9804975
0.070600003 0.057000004 0.22860003 9804975
-0.0111875 0.062374998 0.22800002 6837580
-0.0069583338 0.062541671 0.22645833 6377802
-0.0027142859 0.063571431 0.22571431 5391939
0.00050000002 0.064000003 0.22550002 5129024
0.018000001 0.064000003 0.22500001 2958888
0.068100005 0.061400004 0.226 9278375
0.070714287 0.062428571 0.22785719 8752031
-0.011 0.066299997 0.22780001 6640459
-0.0071538463 0.067846164 0.22584616 6311498
-0.0023333335 0.066333331 0.22500001 6049097
0.001 0.065000005 0.22500001 5457988
0.018428573 0.06542857 0.226 3288109
0.067857146 0.067428574 0.22542858 5001830
0.070428573 0.066714294 0.22814287 6975620
-0.010285715 0.071857147 0.22857143 6378059
-0.0071200007 0.071520008 0.22640008 6049096
-0.0025000002 0.07100001 0.226 5391939
0.001 0.071499996 0.22533335 4866110
0.068181828 0.072181813 0.22618183 8620959
0.070749998 0.072375007 0.22837502 9015461
-0.0064375005 0.076562501 0.22725001 5917765
-0.0026000002 0.077700004 0.22580001 5589057
0.00033333336 0.078666665 0.22500001 5194814
0.067923084 0.076923072 0.22592308 9476267
0.070800006 0.077000007 0.2282 9410731
-0.0020000001 0.080500007 0.22850001 6114886
0.0015 0.080750003 0.22675 5589057
0.0065000001 0.082000002 0.22600001 5260611
0.010000001 0.083500005 0.22700001 5195328
0.016000001 0.084000014 0.22600001 4997952
0.029000001 0.084000006 0.22600001 8879996
0.067909099 0.082181819 0.22618183 9344937
0.070444442 0.081888884 0.22844447 9279145
-0.0069230772 0.087307692 0.227 12300184
-0.0020000001 0.087333344 0.22766669 4073761
0.0015 0.088750005 0.22725001 4205856
0.0065000001 0.089000002 0.22500001 4732968
0.0135 0.085000001 0.22850001 4932159
0.017999999 0.088124998 0.22725001 8548963
0.02123077 0.086923085 0.22676924 5063743
0.028000001 0.087400004 0.22640002 3813425
0.033 0.089000002 0.22500001 12827577
0.068142861 0.086714283 0.22528574 10068659
0.071071424 0.087142862 0.22778574 9937074
-0.0058750003 0.091625005 0.22675 15787221
-0.0036666666 0.093666673 0.22533335 15655894
0.0085000005 0.090000004 0.22800002 5718834
0.016000001 0.090000004 0.22800003 10389621
0.031333335 0.090000004 0.22700001 12827320
0.07190001 0.091900006 0.22684999 9937074
-0.0055 0.095000006 0.22850001 15721172
-0.0026666669 0.097111121 0.22655556 15720918
0 0.099000007 0.22500001 15589845
0.072714292 0.096785717 0.22628571 9937588
0.075500004 0.097500004 0.22900002 9806003
-0.0017500001 0.10075 0.22775 15589846
0.0015714287 0.103 0.22642858 15130066
0.073500007 0.10212501 0.22600001 9608880
0.075800009 0.10200001 0.22800002 9543344
0.0020000001 0.105 0.22800002 15064530
0.073500007 0.105 0.22550002 9542830
0.075500004 0.105 0.22750002 9411502
0.0070000002 -0.11040001 0.2322 4730656
0.010000001 -0.11100001 0.23400001 5391418
0.0175 -0.11050001 0.2325 4207920
0.021000002 -0.11000001 0.23300001 2366231
-0.010000001 -0.10600001 0.23200001 7887943
-0.0071666669 -0.10616667 0.2305 7295807
-0.0029999998 -0.10766667 0.23266667 5780768
0.0016666668 -0.10866667 0.23100001 4926488
0.014 -0.10700001 0.23400001 2103317
0.0185 -0.1075 0.2335 2168854
0.021285716 -0.10771428 0.23114286 2629147
-0.010333334 -0.10433334 0.23366667 6507318
-0.0078888889 -0.10455557 0.23244442 5390645
-0.001 -0.101 0.23400001 2367260
0.0017500001 -0.101 0.23375002 1972503
0.0066666664 -0.10300001 0.23200001 3221799
0.011000001 -0.104 0.23200001 2102805
0.015000001 -0.105 0.23100001 2169110
0.074000001 -0.10300001 0.23100001 11383747
0.075000003 -0.10250001 0.2335 11054524
-0.0071666669 -0.096500002 0.23183334 2366490
-0.0028000001 -0.098200001 0.23140001 2169111
0.0021666668 -0.098666668 0.23116668 2169369
0.0050000004 -0.1 0.23 2038296
0.074000001 -0.096000001 0.2315 9738664
0.075000003 -0.099000007 0.2335 9936558
-0.011124999 -0.092 0.23262501 3089956
-0.0090000005 -0.093000002 0.23 2694172
-0.001 -0.091500007 0.23050001 2300441
0.0021739132 -0.092521749 0.23247825 2826785
0.0050000004 -0.092000008 0.23 2366235
0.073000006 -0.094000004 0.23 9673127
0.075500004 -0.092000008 0.2335 10856628
-0.011846154 -0.088153854 0.23238461 3616043
-0.0025000002 -0.087916672 0.23166667 2892064
0.0022500001 -0.088375002 0.2329375 2760991
0.0050000004 -0.087750003 0.23025002 3023906
0.074000001 -0.088 0.23050001 10987958
0.075800009 -0.088200003 0.23280001 10659505
-0.012066667 -0.082733341 0.23213334 3352871
-0.0058333334 -0.081999995 0.23158336 2628891
-0.0040000002 -0.083500005 0.23400001 2563098
0.0030000003 -0.082625002 0.23199999 2958112
0.014 -0.080000006 0.23200001 3024674
0.017000001 -0.080299996 0.23190002 3484454
0.022000002 -0.081000008 0.2327143 2431769
0.076600008 -0.082400002 0.23240001 10922421
-0.012624999 -0.076624997 0.23199999 3352614
-0.0079090921 -0.076818191 0.23172727 3681836
0.0053333333 -0.076888889 0.23188891 3287079
0.013499999 -0.078250006 0.23075001 2367003
0.016777778 -0.07811112 0.23111112 2234903
0.02225 -0.078250006 0.2315 2628892
0.077000007 -0.077000007 0.23185715 11251130
-0.013333334 -0.072666675 0.23188888 2563099
-0.0080000004 -0.073000006 0.23200001 3615784
0.007571429 -0.072857149 0.23214288 2694939
0.011875 -0.073250003 0.2325 2891805
0.016571429 -0.071857147 0.23385715 3286819
0.0218 -0.072600007 0.23280001 4141613
0.078200005 -0.072200008 0.2318 11251389
0.080000006 -0.072500005 0.23400001 11317183
-0.0129 -0.067549996 0.23139998 3747370
-0.0090000005 -0.067555562 0.23222224 3484198
0.0068000006 -0.06840001 0.23180003 2694426
0.011500001 -0.069000006 0.23025 2168854
0.016666668 -0.066333331 0.23333335 4601135
0.022166668 -0.06666667 0.23199999 5849919
0.027000001 -0.065000005 0.23200001 15918824
0.078285716 -0.066714287 0.23042856 11316667
0.080400005 -0.067200005 0.23300001 11316925
-0.016000001 -0.063000001 0.23366667 4076077
-0.012687501 -0.062187504 0.23143749 4602936
0.0080000004 -0.061000004 0.233 2299927
0.013 -0.061666667 0.23266667 2234392
0.015000001 -0.061000004 0.23 2497563
0.021666668 -0.062666662 0.23233335 4338740
0.026000001 -0.064000003 0.23 16050153
0.078333341 -0.062333331 0.23055553 11053492
0.08085715 -0.062428575 0.23257144 11251131
-0.016200002 -0.056400001 0.23240003 3154717
-0.012684211 -0.057684213 0.23178948 3286819
0.0076000006 -0.059400003 0.23140001 2759706
0.0135 -0.059000004 0.2335 4403755
0.017000001 -0.058800004 0.2322 5391167
0.021200001 -0.057000004 0.23300001 6771536
0.0255 -0.057000004 0.23100001 16050151
0.077722222 -0.057500005 0.23150001 10724525
0.081 -0.057727277 0.23327275 10921390
-0.014 -0.05185714 0.23357144 3616041
0.0073333331 -0.052111108 0.23222221 2826269
0.012 -0.053800005 0.23200002 2432282
0.019000001 -0.051000003 0.23300001 6311240
0.026000001 -0.051000003 0.23400001 16180969
0.07766667 -0.052499998 0.23233335 10856633
0.080000006 -0.054000001 0.23400001 10395045
-0.016000001 -0.049500003 0.23400001 3154461
-0.014500001 -0.049500003 0.23300001 2957084
0.0165 -0.046250004 0.23275001 3089956
0.021624999 -0.048625 0.23112501 8416362
0.025800001 -0.048400003 0.23099999 16115175
0.077399999 -0.048 0.23200002 10791353
-0.016000001 -0.042500004 0.23400001 3154461
-0.015000001 -0.043000001 0.23400001 3088669
0.0080000004 -0.044500001 0.23262501 3023391
0.0118 -0.044 0.2322 3483943
