# .PCD v0.7 - Point Cloud Data file format
VERSION 0.7
FIELDS x y z rgb
SIZE 4 4 4 4
TYPE F F F U
COUNT 1 1 1 1
WIDTH 1183
HEIGHT 1
VIEWPOINT 0 0 0 1 0 0 0
POINTS 1183
DATA ascii
0.108 0.29500002 0.84000003 6508613
0.112 0.296 0.84200007 5715503
0.116 0.29700002 0.84400004 6636345
0.12 0.29800001 0.84700006 7622726
0.12400001 0.29900002 0.84900004 6240559
0.12800001 0.29900002 0.85100001 6503219
0.132 0.30000001 0.85300004 5977645
0.13600001 0.30100003 0.85600007 6240558
0.14 0.30200002 0.85800004 5451042
0.14400001 0.303 0.86000001 6240558
0.148 0.30400002 0.86200005 7819590
0.15200001 0.30500001 0.86500007 7622724
0.156 0.30600002 0.86700004 7490882
0.16000001 0.30700001 0.86900002 6438967
0.164 0.30800003 0.87200004 5913906
0.16800001 0.30900002 0.87400001 7885648
0.17300001 0.31 0.87700003 4993585
0.177 0.31100002 0.87900007 4599091
0.18100001 0.31200001 0.88100004 8352126
0.185 0.31300002 0.88300002 3944538
0.18900001 0.31400001 0.88500005 3945057
0.19400001 0.31500003 0.88700002 8353140
0.19800001 0.31600001 0.89000005 4602461
0.20200001 0.317 0.89200002 11690590
0.20700002 0.31800002 0.89400005 11772811
0.21100001 0.31900001 0.89600003 10771283
0.21600001 0.32000002 0.89800006 10377034
0.22000001 0.32000002 0.90000004 10654580
0.22400001 0.32100001 0.90200007 10257007
0.22900002 0.32300001 0.90500003 11543348
0.23400001 0.324 0.90700006 11282229
0.23800001 0.324 0.90800005 11413302
0.24200001 0.32500002 0.91000003 11413301
0.24600001 0.32500002 0.91000003 12362672
0.25100002 0.32700002 0.91300005 9474209
-0.14600001 0.29100001 0.81300002 8215137
-0.14300001 0.29300001 0.82000005 12463683
-0.14 0.29200003 0.81900007 12333635
-0.13600001 0.29100001 0.81600004 12136775
-0.132 0.29000002 0.81200004 12398405
-0.127 0.287 0.80400002 12398405
-0.123 0.28400001 0.79700005 12332612
-0.11800001 0.28100002 0.79000002 12267589
-0.11400001 0.27900001 0.78300005 12267076
-0.109 0.27600002 0.77600002 12332612
-0.105 0.27400002 0.76900005 12398405
-0.101 0.27100003 0.76300001 12332612
-0.097000003 0.26900002 0.75600004 12266819
-0.093000002 0.26700002 0.75000006 12332866
-0.089000002 0.264 0.74400002 11225430
-0.086000003 0.26300001 0.74000001 11415357
-0.083000004 0.26200002 0.73900002 11610167
-0.079000004 0.26200002 0.73900002 11740980
-0.076000005 0.26300001 0.74000001 11478322
-0.073000006 0.26300001 0.74100006 11544117
-0.07 0.26300001 0.74200004 11675703
-0.068000004 0.264 0.74400002 11412531
-0.065000005 0.264 0.74500006 11478324
-0.062000003 0.26500002 0.74700004 11609910
-0.059000004 0.26500002 0.74900001 11741496
-0.056000002 0.266 0.75000006 11741496
-0.053000003 0.266 0.75200003 11675701
-0.050000001 0.26700002 0.75300002 11610421
-0.047000002 0.26700002 0.75500005 11544628
-0.044000003 0.26800001 0.75700003 11478835
-0.041000001 0.26800001 0.75800002 11478578
-0.037 0.26900002 0.76000005 11609910
-0.034000002 0.27000001 0.76200002 11478324
-0.031000001 0.27000001 0.76300001 11544118
-0.028000001 0.27100003 0.76500005 11478324
-0.025 0.27100003 0.76700002 11214900
-0.022000002 0.27200001 0.76800001 11017269
-0.019000001 0.27200001 0.77000004 11082547
-0.016000001 0.273 0.77200001 11082549
-0.013 0.27400002 0.77400005 10951220
-0.0090000005 0.27400002 0.77500004 11017012
-0.0060000001 0.27500001 0.77700001 11082549
-0.003 0.27600002 0.77900004 11148342
0 0.27600002 0.78100002 11082294
0.003 0.27700001 0.78300005 10754099
0.0070000002 0.27800003 0.78500003 11017271
0.010000001 0.27800003 0.78600001 11148857
0.013 0.27900001 0.78800005 10951478
0.017000001 0.27900001 0.79000002 11148087
0.020000001 0.28 0.79100001 11016501
0.023000002 0.28100002 0.79300004 11411259
0.027000001 0.28100002 0.79500002 11477052
0.030000001 0.28200001 0.79700005 11017270
0.033 0.28200001 0.79800004 10951477
0.037 0.28300002 0.80000001 11083318
0.040000003 0.28400001 0.80200005 11543868
0.043000001 0.28400001 0.80300003 11610429
0.047000002 0.28500003 0.80500007 11675711
0.050000001 0.28600001 0.80700004 11610172
0.054000001 0.287 0.80900002 11215414
0.057000004 0.287 0.81100005 11346483
0.061000004 0.28800002 0.81300002 10435652
0.064000003 0.289 0.81500006 12099982
0.068000004 0.29000002 0.81800002 9932924
0.071000002 0.29000002 0.81900007 11576722
0.075000003 0.29100001 0.82100004 9669496
0.079000004 0.29200003 0.82300001 10393218
0.082000002 0.29300001 0.82500005 9801596
0.086000003 0.29300001 0.82600003 11246988
0.090000004 0.294 0.82900006 9207151
0.093000002 0.29500002 0.83100003 4537136
0.097000003 0.296 0.83300006 3753783
0.101 0.29700002 0.83500004 3428156
0.105 0.29800001 0.83700001 3491637
0.108 0.29800001 0.83900005 3945001
0.112 0.29900002 0.84100002 5783354
0.116 0.30000001 0.84300005 8084051
0.12 0.30100003 0.84600002 5978417
0.12400001 0.30200002 0.84800005 5912109
0.12800001 0.303 0.85000002 6700853
0.132 0.30400002 0.85200006 6964794
0.13600001 0.30500001 0.85500002 7227712
0.14 0.30600002 0.85700005 5715244
0.14400001 0.30700001 0.85900003 5386279
0.148 0.30800003 0.86200005 5583658
0.15200001 0.30900002 0.86400002 7228996
0.156 0.31 0.86600006 7557705
0.16000001 0.31100002 0.86900002 6702400
0.164 0.31200001 0.87100005 4795176
0.16800001 0.31300002 0.87400001 5254960
0.17300001 0.31400001 0.87600005 4862525
0.177 0.31500003 0.87800002 3747678
0.18100001 0.31600001 0.88000005 3615577
0.185 0.31600001 0.88200003 3682666
0.18900001 0.317 0.88400006 5594774
0.19400001 0.31800002 0.88600004 2961244
0.19800001 0.32000002 0.88900006 3615063
0.20200001 0.32000002 0.89100003 9913155
0.20700002 0.32200003 0.89400005 12876660
0.21100001 0.32300001 0.89600003 8598828
0.21600001 0.324 0.89800006 9456443
0.22000001 0.32500002 0.90000004 10454893
0.22500001 0.32600001 0.90200007 10890809
0.22900002 0.32600001 0.90400004 11348022
0.23400001 0.32700002 0.90600002 11413560
0.23800001 0.32800001 0.90800005 11347254
0.24200001 0.32900003 0.90900004 11085625
0.24600001 0.32900003 0.90800005 14657202
0.25 0.32900003 0.90900004 12171209
-0.14300001 0.296 0.81900007 12397892
-0.14 0.296 0.81800002 12136258
-0.13600001 0.29500002 0.81500006 12463685
-0.132 0.29300001 0.81000006 12464198
-0.127 0.29000002 0.80400002 12464198
-0.123 0.287 0.79600006 12464198
-0.11800001 0.28500003 0.78900003 12267333
-0.11400001 0.28200001 0.78200006 12267332
-0.11000001 0.28 0.77600002 12266819
-0.105 0.27700001 0.76900005 12266819
-0.101 0.27500001 0.76200002 12332612
-0.097000003 0.27200001 0.75600004 12266819
-0.093000002 0.27000001 0.75000006 12136516
-0.089000002 0.26700002 0.74300003 11812431
-0.086000003 0.266 0.74000001 10825532
-0.083000004 0.266 0.73900002 11807030
-0.080000006 0.266 0.73900002 11740726
-0.076000005 0.266 0.73900002 11674933
-0.073000006 0.266 0.74000001 11478324
-0.071000002 0.26700002 0.74200004 11675703
-0.068000004 0.26700002 0.74300003 11478323
-0.065000005 0.26700002 0.74500006 11544117
-0.062000003 0.26800001 0.74600005 11609910
-0.059000004 0.26800001 0.74800003 11544117
-0.056000002 0.26900002 0.74900001 11478324
-0.053000003 0.26900002 0.75100005 11478323
-0.050000001 0.27000001 0.75200003 11478836
-0.047000002 0.27000001 0.75400001 11478835
-0.044000003 0.27100003 0.75600004 11544115
-0.040000003 0.27100003 0.75700003 11544115
-0.037 0.27200001 0.75900006 11544117
-0.034000002 0.273 0.76100004 11346738
-0.031000001 0.273 0.76200002 11478324
-0.028000001 0.27400002 0.76400006 11675185
-0.025 0.27400002 0.76600003 11411507
-0.022000002 0.27500001 0.76800001 11148339
-0.019000001 0.27500001 0.76900005 10951218
-0.016000001 0.27600002 0.77100003 10754352
-0.013 0.27700001 0.77300006 10951732
-0.0090000005 0.27800003 0.77500004 11082804
-0.0060000001 0.27800003 0.77700001 11082547
-0.003 0.27900001 0.77900004 11016756
0 0.28 0.78100002 10950963
0.003 0.28 0.78200006 10950708
0.0070000002 0.28100002 0.78400004 10951478
0.010000001 0.28200001 0.78600001 11148857
0.013 0.28200001 0.78800005 10885685
0.017000001 0.28300002 0.78900003 11016501
0.020000001 0.28300002 0.79100001 11148087
0.023000002 0.28400001 0.79200006 11148087
0.027000001 0.28400001 0.79400003 10950708
0.030000001 0.28500003 0.79600006 11148087
0.033 0.28600001 0.79800004 11279928
0.037 0.28600001 0.79900002 11149110
0.040000003 0.287 0.80100006 11280694
0.043000001 0.28800002 0.80200005 11478073
0.047000002 0.28800002 0.80400002 11610170
0.050000001 0.289 0.80600005 11609401
0.054000001 0.29000002 0.80800003 11609913
0.057000004 0.29100001 0.81100005 11281720
0.061000004 0.29200003 0.81300002 11379854
0.064000003 0.29200003 0.81500006 11508618
0.068000004 0.29300001 0.81700003 9931641
0.072000004 0.294 0.81900007 11313294
0.075000003 0.29500002 0.82100004 11445137
0.079000004 0.29500002 0.82200003 9932155
0.082000002 0.296 0.82400006 10392964
0.086000003 0.29700002 0.82600003 11313811
0.090000004 0.29800001 0.82800007 4927786
0.093000002 0.29900002 0.83000004 4402729
0.097000003 0.29900002 0.83200002 4146489
0.101 0.30000001 0.83400005 3428926
0.105 0.30100003 0.83600003 3558970
0.108 0.30200002 0.83800006 3164211
0.112 0.303 0.84000003 4206889
0.116 0.303 0.84200007 4402985
0.12 0.30500001 0.84500003 4796715
0.12400001 0.30500001 0.84700006 5585203
0.12800001 0.30700001 0.85000002 6966598
0.132 0.30800003 0.85200006 7426890
0.13600001 0.30800003 0.85400003 7360843
0.14 0.30900002 0.85600007 6571069
0.14400001 0.31 0.85900003 5519926
0.148 0.31100002 0.86100006 4795690
0.15200001 0.31300002 0.86400002 4860970
0.156 0.31300002 0.86600006 5188908
0.16000001 0.31400001 0.86800003 4991023
0.164 0.31600001 0.87100005 5516590
0.16800001 0.317 0.87300003 5384238
0.17300001 0.317 0.87500006 5585486
0.177 0.31900001 0.87800002 4144249
0.18100001 0.31900001 0.87900007 3617132
0.185 0.32000002 0.88100004 3618672
0.18900001 0.32100001 0.88300002 5136028
0.19400001 0.32200003 0.88500005 4345748
0.19800001 0.32300001 0.88800007 3485544
0.20200001 0.324 0.89000005 9976644
0.20700002 0.32500002 0.89200002 10766916
0.21100001 0.32600001 0.89500004 12092787
0.21600001 0.32700002 0.89700001 12354164
0.22000001 0.32800001 0.89900005 7625543
0.22500001 0.32900003 0.90100002 11282230
0.22900002 0.33000001 0.90300006 11348536
0.23400001 0.33200002 0.90600002 11348279
0.23800001 0.33200002 0.90700006 11348279
0.24200001 0.333 0.90800005 10954809
0.24600001 0.333 0.90700006 14261933
-0.14300001 0.30000001 0.81800002 12267841
-0.14 0.29900002 0.81700003 12463939
-0.13600001 0.29800001 0.81400001 12267332
-0.132 0.296 0.81000006 12398405
-0.127 0.294 0.80300003 12332612
-0.123 0.29100001 0.79600006 12332612
-0.11800001 0.28800002 0.78900003 12332868
-0.11400001 0.28600001 0.78200006 12201796
-0.11000001 0.28300002 0.77500004 12267073
-0.105 0.28 0.76800001 12201025
-0.101 0.27800003 0.76200002 12201026
-0.097000003 0.27500001 0.75500005 12135233
-0.093000002 0.273 0.74900001 12004416
-0.089000002 0.27100003 0.74300003 11089990
-0.086000003 0.27000001 0.74000001 10758454
-0.083000004 0.26900002 0.73900002 11675701
-0.080000006 0.26900002 0.73800004 11544117
-0.077000007 0.26900002 0.73900002 11412531
-0.074000001 0.26900002 0.74000001 11412530
-0.071000002 0.27000001 0.74100006 11478322
-0.068000004 0.27000001 0.74300003 11346990
-0.065000005 0.27000001 0.74400002 11478322
-0.062000003 0.27100003 0.74600005 11478323
-0.059000004 0.27100003 0.74700004 11478323
-0.056000002 0.27200001 0.74900001 11412529
-0.053000003 0.27200001 0.75000006 11544116
-0.050000001 0.273 0.75200003 11609910
-0.047000002 0.273 0.75300002 11609911
-0.044000003 0.27400002 0.75500005 11413044
-0.041000001 0.27500001 0.75700003 11478324
-0.037 0.27500001 0.75800002 11478325
-0.034000002 0.27600002 0.76000005 11609142
-0.031000001 0.27600002 0.76200002 11477555
-0.028000001 0.27700001 0.76300001 11609143
-0.025 0.27800003 0.76500005 11017522
-0.022000002 0.27800003 0.76700002 11017265
-0.019000001 0.27900001 0.76800001 11148340
-0.016000001 0.27900001 0.77000004 11082547
-0.013 0.28 0.77200001 10885684
-0.0090000005 0.28100002 0.77400005 10820403
-0.0060000001 0.28100002 0.77600002 10754609
-0.003 0.28200001 0.77800006 10688816
0 0.28300002 0.78000003 10754609
0.003 0.28400001 0.78200006 10886195
0.0070000002 0.28400001 0.78300005 11083574
0.010000001 0.28500003 0.78500003 10886195
0.013 0.28500003 0.78700006 10819891
0.017000001 0.28600001 0.78800005 10754611
0.020000001 0.287 0.79000002 10951477
0.023000002 0.287 0.79200006 10819892
0.027000001 0.28800002 0.79300004 10754356
0.030000001 0.28800002 0.79500002 10951478
0.033 0.289 0.79700005 11083064
0.037 0.29000002 0.79800004 11279673
0.040000003 0.29000002 0.80000001 11213880
0.043000001 0.29100001 0.80200005 11213880
0.047000002 0.29200003 0.80400002 11213880
0.050000001 0.29200003 0.80500007 11477307
0.054000001 0.29300001 0.80700004 11543100
0.057000004 0.294 0.81000006 12071748
0.061000004 0.29500002 0.81100005 11617354
0.064000003 0.296 0.81400001 12753553
0.068000004 0.29700002 0.81600004 10127736
0.072000004 0.29700002 0.81800002 9734264
0.075000003 0.29800001 0.82000005 10392193
0.079000004 0.29900002 0.82200003 11444879
0.082000002 0.30000001 0.82400006 10260860
0.086000003 0.30000001 0.82500005 9666923
0.090000004 0.30100003 0.82700002 5520428
0.093000002 0.30200002 0.82900006 4731427
0.097000003 0.303 0.83100003 4929579
0.101 0.30400002 0.83300006 3296053
0.105 0.30500001 0.83600003 3166267
0.108 0.30600002 0.83800006 3230777
0.112 0.30600002 0.84000003 3032880
0.116 0.30700001 0.84200007 3487787
0.12 0.30800003 0.84400004 4010282
0.12400001 0.30900002 0.84700006 4271915
0.12800001 0.31 0.84900004 4664875
0.132 0.31100002 0.85100001 4664874
0.13600001 0.31200001 0.85300004 4599081
0.14 0.31300002 0.85600007 4664621
0.14400001 0.31400001 0.85800004 4663851
0.148 0.31500003 0.86100006 4795438
0.15200001 0.31600001 0.86300004 4992047
0.156 0.317 0.86600006 4926256
0.16000001 0.31800002 0.86800003 5777194
0.164 0.31900001 0.87000006 11026761
0.16800001 0.32000002 0.87200004 8334643
0.17300001 0.32100001 0.87400001 6503254
0.177 0.32200003 0.87700003 3882361
0.18100001 0.32300001 0.87900007 3159664
0.185 0.324 0.88100004 3157865
0.19000001 0.32500002 0.88300002 3356282
0.19400001 0.32600001 0.88500005 4806810
0.19800001 0.32700002 0.88700002 3093869
0.20200001 0.32800001 0.88900006 4338256
0.20700002 0.32900003 0.89100003 10850417
0.21100001 0.33000001 0.89400005 11313038
0.21600001 0.33100003 0.89600003 11765366
0.22000001 0.33200002 0.89800006 9390142
0.22500001 0.333 0.90100002 10889008
0.22900002 0.33400002 0.90300006 11150907
0.23400001 0.33500001 0.90500003 11216948
0.23800001 0.33600003 0.90600002 11281464
0.24200001 0.33700001 0.90700006 11217207
0.24600001 0.33600003 0.90500003 12223376
-0.14300001 0.303 0.81700003 12267073
-0.14 0.303 0.81600004 12333124
-0.13600001 0.30200002 0.81400001 12267589
-0.132 0.30000001 0.80900002 12332611
-0.127 0.29700002 0.80200005 12332612
-0.123 0.294 0.79500002 12332612
-0.11800001 0.29100001 0.78800005 12201026
-0.11400001 0.289 0.78100002 12201281
-0.11000001 0.28600001 0.77500004 12266819
-0.105 0.28400001 0.76800001 12135487
-0.101 0.28100002 0.76100004 12135487
-0.097000003 0.27900001 0.75500005 12004158
-0.093000002 0.27600002 0.74900001 11938880
-0.089000002 0.27400002 0.74300003 11153729
-0.086000003 0.273 0.73900002 10758969
-0.083000004 0.27200001 0.73800004 11674932
-0.080000006 0.27200001 0.73800004 11609397
-0.076000005 0.27200001 0.73800004 11477554
-0.074000001 0.27200001 0.73900002 11412531
-0.071000002 0.273 0.74100006 11478068
-0.068000004 0.273 0.74200004 11478322
-0.065000005 0.27400002 0.74400002 11544115
-0.062000003 0.27400002 0.74500006 11478323
-0.059000004 0.27500001 0.74700004 11543601
-0.056000002 0.27500001 0.74800003 11150129
-0.053000003 0.27600002 0.75000006 11478579
-0.050000001 0.27600002 0.75100005 11805493
-0.047000002 0.27600002 0.75200003 11281715
-0.044000003 0.27700001 0.75400001 11477812
-0.041000001 0.27800003 0.75600004 11412532
-0.037 0.27800003 0.75700003 11477555
-0.034000002 0.27900001 0.75900006 11478325
-0.031000001 0.28 0.76100004 11411762
-0.028000001 0.28 0.76200002 11477303
-0.025 0.28100002 0.76400006 11083315
-0.022000002 0.28100002 0.76600003 10819888
-0.019000001 0.28200001 0.76800001 11148338
-0.016000001 0.28300002 0.77000004 11083317
-0.013 0.28300002 0.77200001 11214646
-0.0090000005 0.28400001 0.77400005 11149111
-0.0060000001 0.28500003 0.77600002 11017269
-0.003 0.28500003 0.77700001 10951731
0 0.28600001 0.77900004 10951987
0.003 0.287 0.78100002 11018036
0.0070000002 0.287 0.78300005 10820401
0.010000001 0.28800002 0.78400004 11017524
0.013 0.289 0.78600001 10754611
0.017000001 0.289 0.78800005 10885684
0.020000001 0.29000002 0.78900003 11083063
0.023000002 0.29000002 0.79100001 10951733
0.027000001 0.29100001 0.79300004 11083063
0.030000001 0.29200003 0.79500002 10951478
0.033 0.29200003 0.79600006 11083064
0.037 0.29300001 0.79800004 11279673
0.040000003 0.294 0.80000001 11213880
0.043000001 0.29500002 0.80200005 11082294
0.047000002 0.29500002 0.80300003 11016758
0.050000001 0.296 0.80500007 10951477
0.054000001 0.29700002 0.80700004 11412028
0.057000004 0.29800001 0.80900002 11148339
0.061000004 0.29800001 0.81100005 11411768
0.064000003 0.29900002 0.81300002 11084860
0.068000004 0.30000001 0.81500006 11901068
0.072000004 0.30100003 0.81700003 10918533
0.075000003 0.30200002 0.82000005 11247497
0.079000004 0.30200002 0.82100004 9800051
0.082000002 0.303 0.82300001 10589565
0.086000003 0.30400002 0.82500005 9667426
0.090000004 0.30400002 0.82600003 8085058
0.093000002 0.30500001 0.82800007 9334098
0.097000003 0.30600002 0.83100003 8084799
0.101 0.30700001 0.83300006 4409906
0.105 0.30800003 0.83500004 3427128
0.108 0.30900002 0.83700001 3363132
0.112 0.31 0.83900005 2903352
0.116 0.31100002 0.84100002 3423281
0.12 0.31200001 0.84400004 3553327
0.12400001 0.31300002 0.84600002 3553839
0.12800001 0.31400001 0.84800005 3552040
0.132 0.31500003 0.85100001 4730674
0.13600001 0.31600001 0.85300004 4992047
0.14 0.317 0.85500002 4598062
0.14400001 0.31800002 0.85700005 5122608
0.148 0.31900001 0.86000001 5187887
0.15200001 0.32000002 0.86300004 5581104
0.156 0.32100001 0.86500007 5646127
0.16000001 0.32200003 0.86700004 5971747
0.164 0.32300001 0.86900002 9977149
0.16900001 0.324 0.87200004 9384244
0.17300001 0.32500002 0.87400001 6040888
0.177 0.32600001 0.87600005 3618419
0.18100001 0.32700002 0.87800002 3552625
0.185 0.32800001 0.88000005 3289451
0.19000001 0.32900003 0.88200003 3289708
0.19400001 0.33000001 0.88400006 4080265
0.19800001 0.33100003 0.88600004 3421037
0.20200001 0.33200002 0.88800007 3682896
0.20700002 0.333 0.89100003 10261641
0.21100001 0.33400002 0.89300007 10588799
0.21600001 0.33500001 0.89500004 9918016
0.22000001 0.33600003 0.89800006 11898225
0.22500001 0.33700001 0.90000004 11479350
0.22900002 0.33800003 0.90200007 11150646
0.23400001 0.33900002 0.90400004 11149617
0.23800001 0.34 0.90600002 10887725
0.24200001 0.34 0.90600002 10758195
0.24600001 0.34 0.90400004 9400955
-0.14300001 0.30600002 0.81600004 12332612
-0.14 0.30600002 0.81600004 12398661
-0.13600001 0.30500001 0.81300002 12267073
-0.132 0.303 0.80900002 12266306
-0.127 0.30100003 0.80200005 12201026
-0.123 0.29800001 0.79500002 12266819
-0.11800001 0.29500002 0.78800005 12136003
-0.11400001 0.29200003 0.78100002 12136003
-0.11000001 0.29000002 0.77400005 12070210
-0.10600001 0.287 0.76800001 12069952
-0.101 0.28500003 0.76100004 12135745
-0.097000003 0.28200001 0.75500005 12201281
-0.093000002 0.27900001 0.74800003 12069694
-0.089000002 0.27700001 0.74200004 11874628
-0.086000003 0.27600002 0.73900002 10760251
-0.083000004 0.27500001 0.73700005 11543604
-0.080000006 0.27500001 0.73700005 11280945
-0.077000007 0.27500001 0.73800004 11412531
-0.074000001 0.27600002 0.73900002 11478324
-0.071000002 0.27600002 0.74000001 11346738
-0.068000004 0.27600002 0.74100006 11280943
-0.065000005 0.27700001 0.74300003 11478322
-0.062000003 0.27700001 0.74400002 11413042
-0.059000004 0.27800003 0.74600005 11413044
-0.056000002 0.27800003 0.74700004 11478067
-0.053000003 0.27900001 0.74900001 12999521
-0.050000001 0.27900001 0.75000006 10823730
-0.047000002 0.28 0.75200003 11478325
-0.044000003 0.28 0.75300002 11347253
-0.041000001 0.28100002 0.75500005 11149617
-0.037 0.28200001 0.75700003 11215410
-0.034000002 0.28200001 0.75800002 11544377
-0.031000001 0.28300002 0.76000005 11215410
-0.028000001 0.28300002 0.76200002 11611197
-0.025 0.28400001 0.76300001 11215928
-0.022000002 0.28400001 0.76500005 10688557
-0.019000001 0.28500003 0.76700002 10820145
-0.016000001 0.28600001 0.76900005 10820145
-0.013 0.287 0.77100003 10885938
-0.0090000005 0.287 0.77300006 10820145
-0.0060000001 0.28800002 0.77500004 10951986
-0.003 0.289 0.77700001 10820400
0 0.29000002 0.77900004 10886449
0.003 0.29000002 0.78100002 10754352
0.0070000002 0.29100001 0.78200006 10754352
0.010000001 0.29100001 0.78400004 10820145
0.013 0.29200003 0.78500003 11017270
0.017000001 0.29300001 0.78700006 10886195
0.020000001 0.29300001 0.78900003 10820402
0.023000002 0.294 0.79000002 11017781
0.027000001 0.294 0.79200006 11017783
0.030000001 0.29500002 0.79400003 10885684
0.033 0.296 0.79600006 10951477
0.037 0.296 0.79700005 11214135
0.040000003 0.29700002 0.79900002 11148342
0.043000001 0.29800001 0.80100006 11082294
0.047000002 0.29800001 0.80200005 10951477
0.050000001 0.29900002 0.80400002 11148597
0.054000001 0.30000001 0.80600005 12003647
0.057000004 0.30100003 0.80800003 11806013
0.061000004 0.30200002 0.81000006 11807290
0.064000003 0.30200002 0.81200004 11084845
0.068000004 0.303 0.81400001 11442314
0.072000004 0.30400002 0.81700003 11248787
0.075000003 0.30500001 0.81900007 10919565
0.079000004 0.30600002 0.82100004 10590598
0.082000002 0.30700001 0.82200003 11051149
0.086000003 0.30700001 0.82400006 10720899
0.090000004 0.30800003 0.82600003 9007696
0.093000002 0.30900002 0.82800007 9400137
0.097000003 0.31 0.83000004 8742728
0.101 0.31100002 0.83200002 4473896
0.105 0.31200001 0.83400005 3032115
0.108 0.31200001 0.83600003 2771252
0.112 0.31300002 0.83800006 3165756
0.116 0.31400001 0.84000003 2834992
0.12 0.31500003 0.84300005 2704176
0.12400001 0.31600001 0.84500003 3558971
0.12800001 0.317 0.84700006 4147769
0.132 0.31800002 0.84900004 10321008
0.13600001 0.31900001 0.85200006 9663333
0.14 0.32000002 0.85400003 6569018
0.14400001 0.32100001 0.85600007 5711401
0.148 0.32200003 0.85900003 5645608
0.15200001 0.324 0.86200005 5448999
0.156 0.32500002 0.86400002 5449512
0.16000001 0.32600001 0.86600006 8742746
0.164 0.32600001 0.86800003 10712164
0.16900001 0.32800001 0.87100005 10631742
0.17300001 0.32900003 0.87300003 5912645
0.177 0.33000001 0.87500006 3486047
0.18100001 0.33100003 0.87700003 4341349
0.185 0.33100003 0.87900007 3946837
0.18900001 0.33200002 0.88100004 3748945
0.19400001 0.333 0.88300002 10789786
0.19800001 0.33400002 0.88500005 9604474
0.20200001 0.33500001 0.88700002 9406582
0.20700002 0.33700001 0.89000005 8946544
0.21100001 0.33800003 0.89200002 9468774
0.21600001 0.33900002 0.89400005 11964282
0.22000001 0.34 0.89700001 11573115
0.22500001 0.34100002 0.89900005 11479862
0.22900002 0.34200001 0.90100002 10822447
0.23400001 0.34300002 0.90400004 11083312
0.23800001 0.34400001 0.90500003 10952494
0.24200001 0.34400001 0.90500003 11149619
0.24600001 0.34400001 0.90400004 9331556
-0.14400001 0.31 0.81600004 12397894
-0.14 0.31 0.81600004 12332354
-0.13600001 0.30800003 0.81200004 12267330
-0.132 0.30700001 0.80800003 12397378
-0.127 0.30400002 0.80100006 12201026
-0.123 0.30100003 0.79400003 12201026
-0.11800001 0.29800001 0.78700006 12266819
-0.11400001 0.296 0.78000003 12266819
-0.11000001 0.29300001 0.77400005 12201026
-0.10600001 0.29000002 0.76700002 12135233
-0.101 0.28800002 0.76000005 12135233
-0.097000003 0.28500003 0.75400001 12069440
-0.093000002 0.28300002 0.74800003 12135234
-0.090000004 0.28100002 0.74200004 12072262
-0.086000003 0.27900001 0.73800004 10890808
-0.083000004 0.27800003 0.73700005 11740726
-0.080000006 0.27800003 0.73600006 11346738
-0.077000007 0.27800003 0.73700005 11346995
-0.074000001 0.27900001 0.73800004 11346738
-0.071000002 0.27900001 0.73900002 11412531
-0.068000004 0.28 0.74100006 11412529
-0.065000005 0.28 0.74200004 11346736
-0.062000003 0.28100002 0.74400002 11346993
-0.059000004 0.28100002 0.74500006 11413042
-0.056000002 0.28200001 0.74700004 13786981
-0.053000003 0.28200001 0.74800003 12090486
-0.050000001 0.28300002 0.75000006 10497077
-0.047000002 0.28300002 0.75100005 11347251
-0.044000003 0.28400001 0.75300002 11610681
-0.040000003 0.28400001 0.75400001 11150900
-0.037 0.28500003 0.75600004 12335432
-0.034000002 0.28500003 0.75800002 11612479
-0.031000001 0.28600001 0.75900006 11281205
-0.028000001 0.28600001 0.76100004 12139596
-0.025 0.287 0.76300001 11745352
-0.022000002 0.28800002 0.76500005 10426158
-0.019000001 0.28800002 0.76600003 10688559
-0.016000001 0.289 0.76800001 10820402
-0.013 0.29000002 0.77000004 10819632
-0.0090000005 0.29000002 0.77200001 10820403
-0.0060000001 0.29100001 0.77400005 10754611
-0.003 0.29200003 0.77600002 10623025
0 0.29300001 0.77800006 10623538
0.003 0.29300001 0.78000003 10688820
0.0070000002 0.294 0.78200006 10623025
0.010000001 0.29500002 0.78300005 10492208
0.013 0.29500002 0.78500003 10558511
0.017000001 0.296 0.78700006 11677243
0.020000001 0.29700002 0.78800005 11874366
0.023000002 0.29700002 0.79000002 11084082
0.027000001 0.29800001 0.79200006 10950963
0.030000001 0.29900002 0.79400003 10951219
0.033 0.29900002 0.79500002 11017011
0.037 0.30000001 0.79700005 11214389
0.040000003 0.30100003 0.79900002 11148596
0.043000001 0.30100003 0.80000001 11017267
0.047000002 0.30200002 0.80200005 11148596
0.050000001 0.303 0.80400002 10951729
0.054000001 0.30400002 0.80600005 11149108
0.057000004 0.30400002 0.80800003 11479858
0.061000004 0.30500001 0.81000006 11285036
0.064000003 0.30600002 0.81200004 10631725
0.068000004 0.30700001 0.81400001 11047802
0.072000004 0.30800003 0.81600004 10129531
0.075000003 0.30900002 0.81800002 11051148
0.079000004 0.30900002 0.82000005 10195326
0.082000002 0.31 0.82200003 9537911
0.086000003 0.31100002 0.82400006 11312780
0.090000004 0.31200001 0.82500005 8746592
0.093000002 0.31200001 0.82700002 9075808
0.097000003 0.31300002 0.82900006 9601893
0.101 0.31400001 0.83100003 3878427
0.105 0.31500003 0.83400005 2702891
0.108 0.31600001 0.83600003 3163956
0.112 0.317 0.83800006 2968891
0.116 0.31800002 0.84000003 2967093
0.12 0.31900001 0.84300005 2767656
0.12400001 0.32000002 0.84500003 9925725
0.12800001 0.32100001 0.84700006 7290415
0.132 0.32200003 0.84900004 11830643
0.13600001 0.32300001 0.85100001 10779494
0.14 0.324 0.85300004 10513508
0.14400001 0.32500002 0.85500002 5646377
0.148 0.32600001 0.85800004 5710888
0.15200001 0.32700002 0.86100006 5579816
0.156 0.32900003 0.86400002 11576213
0.16000001 0.32900003 0.86600006 10062973
0.164 0.33000001 0.86800003 10914166
0.16900001 0.33100003 0.87000006 9391685
0.17300001 0.33200002 0.87200004 3943989
0.177 0.333 0.87400001 3550285
0.18100001 0.33400002 0.87600005 10986658
0.185 0.33500001 0.87800002 9802126
0.18900001 0.33600003 0.88000005 5459529
0.19400001 0.33700001 0.88200003 10788234
0.19800001 0.33800003 0.88400006 11116937
0.20200001 0.33900002 0.88600004 11707536
0.20700002 0.34 0.88900006 11247504
0.21100001 0.34100002 0.89100003 11639177
0.21600001 0.34300002 0.89400005 11566963
0.22000001 0.34400001 0.89600003 11890027
0.22500001 0.34500003 0.89800006 11347766
0.23 0.34600002 0.90100002 11149874
0.23400001 0.347 0.90300006 10886958
0.23800001 0.34800002 0.90400004 10625584
0.24300002 0.34900001 0.90500003 11149108
0.24600001 0.34800002 0.90400004 11951713
0.25100002 0.34900001 0.90600002 7893367
-0.14400001 0.31400001 0.81600004 12463685
-0.14 0.31400001 0.81600004 12332866
-0.13600001 0.31200001 0.81200004 12267073
-0.132 0.31 0.80800003 12396865
-0.127 0.30800003 0.80100006 12266560
-0.123 0.30500001 0.79400003 12398146
-0.11800001 0.30200002 0.78600001 12201280
-0.11400001 0.29900002 0.78000003 12135488
-0.11000001 0.296 0.77300006 12201024
-0.105 0.294 0.76600003 12135487
-0.101 0.29100001 0.76000005 12069696
-0.097000003 0.289 0.75400001 12135490
-0.093000002 0.28600001 0.74700004 11938622
-0.090000004 0.28400001 0.74100006 12138056
-0.086000003 0.28200001 0.73800004 10691891
-0.083000004 0.28100002 0.73600006 11543857
-0.080000006 0.28100002 0.73600006 11478067
-0.077000007 0.28200001 0.73700005 11280945
-0.074000001 0.28200001 0.73700005 11149359
-0.071000002 0.28200001 0.73900002 11346738
-0.068000004 0.28300002 0.74000001 11477811
-0.065000005 0.28300002 0.74200004 11412274
-0.062000003 0.28400001 0.74300003 11215409
-0.059000004 0.28400001 0.74500006 11215409
-0.056000002 0.28500003 0.74600005 10567747
-0.053000003 0.28500003 0.74800003 11100000
-0.050000001 0.28600001 0.74900001 11492192
-0.047000002 0.28600001 0.75000006 11085620
-0.044000003 0.287 0.75200003 11282744
-0.040000003 0.287 0.75300002 10888757
-0.037 0.28800002 0.75500005 12468303
-0.034000002 0.28800002 0.75700003 11547457
-0.031000001 0.289 0.75900006 10755891
-0.028000001 0.29000002 0.76000005 10100013
-0.025 0.29000002 0.76200002 10627388
-0.022000002 0.29100001 0.76400006 10557745
-0.019000001 0.29200003 0.76600003 10688816
-0.016000001 0.29200003 0.76800001 10820145
-0.013 0.29300001 0.77000004 10688048
-0.0090000005 0.294 0.77100003 10950963
-0.0060000001 0.29500002 0.77400005 10819891
-0.003 0.29500002 0.77500004 10820147
0 0.296 0.77700001 10754611
0.003 0.29700002 0.77900004 10623536
0.0070000002 0.29700002 0.78100002 10557743
0.010000001 0.29800001 0.78200006 10623535
0.013 0.29900002 0.78400004 10557998
0.017000001 0.29900002 0.78600001 11283254
0.020000001 0.30000001 0.78700006 11611703
0.023000002 0.30100003 0.78900003 11676473
0.027000001 0.30100003 0.79100001 11017523
0.030000001 0.30200002 0.79300004 11082547
0.033 0.30200002 0.79400003 11016755
0.037 0.303 0.79600006 10950961
0.040000003 0.30400002 0.79800004 10885168
0.044000003 0.30500001 0.80000001 10820144
0.047000002 0.30500001 0.80100006 10885938
0.050000001 0.30700001 0.80400002 11017524
0.054000001 0.30700001 0.80500007 11017525
0.057000004 0.30800003 0.80700004 10954292
0.061000004 0.30900002 0.80900002 11619130
0.064000003 0.30900002 0.81100005 11241060
0.068000004 0.31 0.81300002 10062965
0.072000004 0.31100002 0.81500006 10392439
0.075000003 0.31200001 0.81700003 10457977
0.079000004 0.31300002 0.82000005 10787457
0.082000002 0.31400001 0.82100004 10326906
0.086000003 0.31400001 0.82300001 9801334
0.090000004 0.31500003 0.82500005 11182732
0.093000002 0.31600001 0.82700002 11444876
0.097000003 0.317 0.82900006 11576721
0.101 0.31800002 0.83100003 3751210
0.105 0.31900001 0.83300006 2833966
0.108 0.32000002 0.83500004 2966580
0.112 0.32100001 0.83700001 3492923
0.116 0.32200003 0.84000003 3360820
0.12 0.32300001 0.84200007 4470572
0.12400001 0.324 0.84400004 11110256
0.12800001 0.32500002 0.84600002 9128249
0.132 0.32500002 0.84800005 11964272
0.13600001 0.32600001 0.85000002 10977125
0.14 0.32700002 0.85200006 9192760
0.14400001 0.32900003 0.85500002 7482153
0.148 0.33000001 0.85700005 5972521
0.15200001 0.33100003 0.86000001 4596513
0.156 0.33200002 0.86200005 10785414
0.16000001 0.333 0.86400002 11049614
0.164 0.33400002 0.86600006 9076587
0.16800001 0.33500001 0.86800003 8747873
0.17200001 0.33600003 0.87000006 9537666
0.177 0.33700001 0.87300003 10788243
0.18100001 0.33800003 0.87500006 9078139
0.185 0.33900002 0.87700003 11117207
0.18900001 0.34 0.87900007 11050644
0.19400001 0.34100002 0.88100004 9735033
0.19800001 0.34200001 0.88300002 10261889
0.20200001 0.34300002 0.88500005 10919571
0.20700002 0.34400001 0.88800007 10787977
0.21100001 0.34500003 0.89000005 8931647
0.21600001 0.347 0.89300007 11084596
0.22000001 0.34800002 0.89500004 11215151
0.22500001 0.34900001 0.89700001 11347509
0.23 0.35000002 0.90000004 10952752
0.23400001 0.35100001 0.90200007 11215412
0.23800001 0.35200003 0.90300006 10952750
0.24300002 0.35200003 0.90400004 11280946
0.24700001 0.35300002 0.90500003 8535628
0.252 0.35500002 0.90900004 5324872
-0.14400001 0.31800002 0.81700003 12331585
-0.14 0.317 0.81500006 12136004
-0.13600001 0.31600001 0.81200004 12201280
-0.132 0.31400001 0.80700004 12528451
-0.127 0.31100002 0.80000001 12332353
-0.123 0.30800003 0.79300004 12266560
-0.11800001 0.30500001 0.78600001 12266560
-0.11400001 0.30200002 0.77900004 12135230
-0.11000001 0.29900002 0.77200001 12200510
-0.10600001 0.29700002 0.76600003 12266560
-0.101 0.294 0.75900006 12200512
-0.097000003 0.29200003 0.75300002 12003646
-0.094000004 0.289 0.74700004 11938622
-0.090000004 0.287 0.74100006 11940421
-0.086000003 0.28500003 0.73700005 10822196
-0.083000004 0.28500003 0.73600006 11740467
-0.080000006 0.28400001 0.73500001 11543346
-0.077000007 0.28500003 0.73600006 11477808
-0.074000001 0.28500003 0.73700005 11477808
-0.071000002 0.28500003 0.73800004 11609394
-0.068000004 0.28600001 0.73900002 11543601
-0.065000005 0.28600001 0.74100006 11543601
-0.062000003 0.287 0.74300003 11608370
-0.059000004 0.287 0.74400002 11610166
-0.056000002 0.28800002 0.74600005 10630978
-0.053000003 0.28800002 0.74700004 11296868
-0.050000001 0.289 0.74800003 11030101
-0.047000002 0.289 0.75000006 11084594
-0.044000003 0.29000002 0.75100005 11347510
-0.041000001 0.29000002 0.75300002 11085367
-0.037 0.29100001 0.75400001 11811660
-0.034000002 0.29200003 0.75600004 12007758
-0.031000001 0.29200003 0.75800002 10492464
-0.028000001 0.29300001 0.75900006 11942734
-0.025 0.29300001 0.76100004 11351882
-0.022000002 0.294 0.76300001 10229551
-0.019000001 0.29500002 0.76500005 10623025
-0.016000001 0.296 0.76700002 10557232
-0.013 0.296 0.76900005 10754611
-0.0090000005 0.29700002 0.77100003 10819891
-0.0060000001 0.29800001 0.77300006 10754098
-0.003 0.29900002 0.77500004 10688305
0 0.29900002 0.77700001 10885427
0.003 0.30000001 0.77800006 10820400
0.0070000002 0.30100003 0.78000003 10689070
0.010000001 0.30100003 0.78200006 10557233
0.013 0.30200002 0.78300005 11152950
0.017000001 0.303 0.78500003 11877428
0.020000001 0.303 0.78700006 11091504
0.023000002 0.30400002 0.78800005 12009532
0.027000001 0.30500001 0.79000002 10689069
0.030000001 0.30500001 0.79200006 10820402
0.033 0.30600002 0.79300004 11083317
0.037 0.30700001 0.79500002 10885938
0.040000003 0.30700001 0.79700005 11083317
0.044000003 0.30800003 0.79900002 11083317
0.047000002 0.30900002 0.80100006 11017524
0.050000001 0.31 0.80300003 11017781
0.054000001 0.31100002 0.80500007 10886451
0.057000004 0.31100002 0.80700004 10821687
0.061000004 0.31200001 0.80900002 11031638
0.065000005 0.31300002 0.81100005 10591112
0.068000004 0.31400001 0.81300002 11707287
0.072000004 0.31500003 0.81500006 11445394
0.075000003 0.31600001 0.81700003 10985103
0.079000004 0.317 0.81900007 11050638
0.083000004 0.317 0.82100004 10195839
0.086000003 0.31800002 0.82300001 9800310
0.090000004 0.31900001 0.82500005 10196353
0.093000002 0.32000002 0.82600003 10064511
0.097000003 0.32100001 0.82800007 9933184
0.101 0.32100001 0.83000004 3555886
0.105 0.32200003 0.83200002 3556663
0.108 0.32300001 0.83400005 3756094
0.112 0.324 0.83600003 3555892
0.116 0.32500002 0.83900005 3359026
0.12 0.32600001 0.84100002 9061942
0.12400001 0.32700002 0.84300005 10838092
0.12800001 0.32800001 0.84500003 9652025
0.132 0.32900003 0.84700006 11701618
0.13600001 0.33000001 0.84900004 11176042
0.14 0.33100003 0.85200006 9582891
0.14400001 0.33200002 0.85400003 10242107
0.148 0.333 0.85700005 5975077
0.15200001 0.33400002 0.85900003 5585713
0.156 0.33500001 0.86100006 10195839
0.16000001 0.33700001 0.86400002 9537128
0.164 0.33800003 0.86600006 9274208
0.16800001 0.33900002 0.86800003 10721415
0.17300001 0.34 0.87000006 10656141
0.177 0.34100002 0.87200004 10985622
0.18100001 0.34200001 0.87400001 10721420
0.185 0.34300002 0.87600005 11182486
0.18900001 0.34400001 0.87800002 11248278
0.19400001 0.34500003 0.88100004 11051156
0.19800001 0.34600002 0.88300002 11116694
0.20300001 0.347 0.88500005 10984849
0.20700002 0.34800002 0.88700002 10587766
0.21100001 0.34900001 0.88900006 8206890
0.21600001 0.35000002 0.89200002 11281462
0.22000001 0.35100001 0.89400005 11347253
0.22500001 0.35200003 0.89600003 11544888
0.22900002 0.35300002 0.89800006 11281716
0.23400001 0.35500002 0.90100002 11215410
0.23800001 0.35600001 0.90200007 11018287
0.24300002 0.35600001 0.90300006 11150645
0.24700001 0.35800001 0.90600002 7157309
0.25300002 0.36100003 0.91300005 4468532
-0.14400001 0.32100001 0.81600004 12265792
-0.14 0.32100001 0.81500006 12266305
-0.13600001 0.32000002 0.81200004 12135487
-0.132 0.317 0.80700004 12528192
-0.127 0.31500003 0.80000001 12266560
-0.123 0.31200001 0.79300004 12266560
-0.11800001 0.30800003 0.78500003 12200767
-0.11400001 0.30600002 0.77800006 12069694
-0.11000001 0.303 0.77100003 12200513
-0.10600001 0.30000001 0.76500005 12068927
-0.101 0.29700002 0.75800002 12068927
-0.098000005 0.29500002 0.75300002 12003647
-0.094000004 0.29300001 0.74700004 12201023
-0.090000004 0.29000002 0.74100006 11873858
-0.086000003 0.289 0.73700005 10559275
-0.083000004 0.28800002 0.73500001 11674672
-0.080000006 0.287 0.73400003 11280429
-0.077000007 0.28800002 0.73500001 11412272
-0.074000001 0.28800002 0.73600006 11609394
-0.071000002 0.28800002 0.73700005 11412272
-0.068000004 0.289 0.73900002 11478065
-0.065000005 0.29000002 0.74100006 11346736
-0.062000003 0.29000002 0.74200004 11412272
-0.059000004 0.29000002 0.74300003 11874620
-0.056000002 0.29100001 0.74500006 10501960
-0.053000003 0.29100001 0.74600005 11689573
-0.050000001 0.29200003 0.74800003 12675441
-0.047000002 0.29200003 0.74900001 11413048
-0.044000003 0.29300001 0.75100005 11414331
-0.041000001 0.29300001 0.75200003 11020089
-0.037 0.294 0.75400001 11416902
-0.034000002 0.29500002 0.75500005 11942219
-0.031000001 0.29500002 0.75700003 10296113
-0.028000001 0.296 0.75900006 11087939
-0.025 0.29700002 0.76100004 10497085
-0.022000002 0.29800001 0.76300001 10098221
-0.019000001 0.29800001 0.76500005 10557745
-0.016000001 0.29900002 0.76600003 10688818
-0.013 0.29900002 0.76800001 10754611
-0.0090000005 0.30000001 0.77000004 10623281
-0.0060000001 0.30100003 0.77200001 10689331
-0.003 0.30200002 0.77400005 10820404
0 0.303 0.77600002 10754611
0.003 0.303 0.77700001 10754614
0.0070000002 0.30400002 0.77900004 10950959
0.010000001 0.30500001 0.78100002 10623534
0.013 0.30500001 0.78200006 10493999
0.017000001 0.30600002 0.78400004 11682365
0.020000001 0.30700001 0.78600001 11949113
0.023000002 0.30700001 0.78700006 12077894
0.027000001 0.30800003 0.78900003 10362157
0.030000001 0.30900002 0.79100001 10426668
0.033 0.30900002 0.79300004 10426668
0.037 0.31 0.79400003 10426925
0.040000003 0.31100002 0.79700005 10624304
0.044000003 0.31100002 0.79800004 10755122
0.047000002 0.31200001 0.80000001 10820915
0.050000001 0.31300002 0.80200005 10821684
0.054000001 0.31400001 0.80400002 10887476
0.057000004 0.31500003 0.80600005 10821171
0.061000004 0.31600001 0.80800003 11281720
0.064000003 0.31600001 0.81000006 10888504
0.068000004 0.317 0.81200004 10709097
0.072000004 0.31800002 0.81400001 11898250
0.075000003 0.31900001 0.81700003 10576479
0.079000004 0.32000002 0.81900007 10565947
0.083000004 0.32100001 0.82000005 10501174
0.086000003 0.32200003 0.82200003 11028549
0.090000004 0.32300001 0.82400006 11504758
0.094000004 0.32300001 0.82600003 11313288
0.097000003 0.324 0.82700002 9539960
0.101 0.32500002 0.82900006 3159842
0.105 0.32600001 0.83100003 4673343
0.108 0.32700002 0.83300006 10200212
0.112 0.32800001 0.83500004 3028776
0.116 0.32900003 0.83800006 3816750
0.12 0.33000001 0.84000003 10173997
0.12400001 0.33100003 0.84300005 10308406
0.12800001 0.33200002 0.84500003 12094575
0.132 0.333 0.84700006 10509895
0.13600001 0.33400002 0.84900004 10109746
0.14 0.33500001 0.85100001 9057569
0.14400001 0.33600003 0.85300004 9516321
0.148 0.33700001 0.85600007 11040614
0.15200001 0.33800003 0.85800004 10459010
0.156 0.33900002 0.86100006 10522755
0.16000001 0.34 0.86300004 10590852
0.164 0.34100002 0.86500007 10852491
0.16800001 0.34200001 0.86700004 9340276
0.17300001 0.34300002 0.86900002 11181969
0.177 0.34400001 0.87100005 10327687
0.18100001 0.34500003 0.87300003 10787470
0.185 0.34600002 0.87500006 9603966
0.19000001 0.34800002 0.87800002 11050897
0.19400001 0.34900001 0.88000005 11182482
0.19800001 0.35000002 0.88200003 11050895
0.20300001 0.35100001 0.88400006 10656137
0.20700002 0.35200003 0.88600004 8537398
0.21100001 0.35300002 0.88800007 10694453
0.21600001 0.354 0.89100003 11019821
0.22000001 0.35500002 0.89300007 11478838
0.22500001 0.35600001 0.89500004 11018287
0.22900002 0.35700002 0.89700001 11413557
0.23400001 0.35900003 0.90000004 11282227
0.23800001 0.35900003 0.90100002 10953518
0.24300002 0.36000001 0.90300006 11150900
0.24800001 0.36200002 0.90600002 9317687
0.25400001 0.36500001 0.91300005 4274491
-0.14400001 0.32500002 0.81600004 11807808
-0.14 0.324 0.81400001 12200513
-0.13600001 0.32300001 0.81200004 12070210
-0.132 0.32100001 0.80700004 12201026
-0.12800001 0.31800002 0.80000001 12200513
-0.123 0.31500003 0.79300004 12200768
-0.11800001 0.31200001 0.78500003 12134975
-0.11400001 0.30900002 0.77800006 12200512
-0.11000001 0.30600002 0.77100003 12134973
-0.10600001 0.303 0.76400006 12135231
-0.101 0.30000001 0.75700003 12069183
-0.098000005 0.29800001 0.75200003 12068927
-0.094000004 0.296 0.74600005 11938881
-0.090000004 0.29300001 0.74000001 11676992
-0.086000003 0.29200003 0.73600006 10297901
-0.083000004 0.29100001 0.73500001 11412015
-0.080000006 0.29100001 0.73400003 11280944
-0.077000007 0.29100001 0.73500001 11477553
-0.074000001 0.29100001 0.73600006 11280943
-0.071000002 0.29200003 0.73700005 11346222
-0.068000004 0.29200003 0.73800004 11477808
-0.065000005 0.29300001 0.74000001 11412531
-0.062000003 0.29300001 0.74100006 11346738
-0.059000004 0.294 0.74300003 11412787
-0.056000002 0.294 0.74400002 12668761
-0.053000003 0.29500002 0.74600005 12144989
-0.050000001 0.29500002 0.74700004 11943243
-0.047000002 0.29500002 0.74800003 11085877
-0.044000003 0.296 0.75000006 11546173
-0.041000001 0.29700002 0.75100005 10888758
-0.037 0.29700002 0.75300002 10497340
-0.034000002 0.29800001 0.75500005 11285317
-0.031000001 0.29800001 0.75600004 10491437
-0.028000001 0.29900002 0.75800002 10957380
-0.025 0.30000001 0.76000005 10891587
-0.022000002 0.30100003 0.76200002 10295087
-0.019000001 0.30100003 0.76400006 10360366
-0.016000001 0.30200002 0.76600003 10557232
-0.013 0.303 0.76700002 10688818
-0.0090000005 0.303 0.76900005 10623280
-0.0060000001 0.30400002 0.77100003 10689070
-0.003 0.30500001 0.77300006 10689070
0 0.30600002 0.77500004 10754863
0.003 0.30700001 0.77700001 10951215
0.0070000002 0.30700001 0.77900004 10885680
0.010000001 0.30800003 0.78000003 10689070
0.013 0.30900002 0.78200006 10623277
0.017000001 0.30900002 0.78400004 10296362
0.020000001 0.31 0.78500003 10955322
0.023000002 0.31 0.78600001 10034733
0.027000001 0.31100002 0.78800005 10295597
0.030000001 0.31200001 0.79000002 10427184
0.033 0.31300002 0.79200006 10361391
0.037 0.31300002 0.79400003 10230573
0.040000003 0.31400001 0.79600006 10230573
0.043000001 0.31500003 0.79700005 10230832
0.047000002 0.31600001 0.79900002 10296368
0.050000001 0.31600001 0.80100006 10690867
0.054000001 0.317 0.80300003 11085368
0.057000004 0.31800002 0.80500007 10296366
0.061000004 0.31900001 0.80700004 10165293
0.064000003 0.32000002 0.80900002 10231086
0.068000004 0.32100001 0.81100005 10100015
0.072000004 0.32200003 0.81300002 11284028
0.075000003 0.32300001 0.81600004 10691891
0.079000004 0.324 0.81800002 10561078
0.083000004 0.32500002 0.82000005 10823478
0.086000003 0.32500002 0.82200003 11678012
0.090000004 0.32600001 0.82300001 11769983
0.094000004 0.32700002 0.82500005 10325880
0.097000003 0.32800001 0.82700002 9605245
0.101 0.32800001 0.82800007 8158315
0.105 0.32900003 0.83000004 8026987
0.108 0.33000001 0.83200002 10526866
0.112 0.33100003 0.83500004 7959913
0.116 0.33200002 0.83700001 9012853
0.12 0.33400002 0.84000003 9190692
0.12400001 0.33500001 0.84200007 9516580
0.12800001 0.33500001 0.84400004 9846574
0.132 0.33600003 0.84600002 9188131
0.13600001 0.33700001 0.84800005 10306097
0.14 0.33900002 0.85100001 9977131
0.14400001 0.34 0.85300004 9845293
0.148 0.34100002 0.85500002 9978411
0.15200001 0.34200001 0.85800004 9386790
0.156 0.34300002 0.86000001 10110006
0.16000001 0.34400001 0.86200005 10119252
0.164 0.34500003 0.86400002 10984071
0.16800001 0.34600002 0.86600006 11117205
0.17300001 0.347 0.86800003 10459529
0.177 0.34800002 0.87100005 10985104
0.18100001 0.34900001 0.87300003 11182228
0.185 0.35000002 0.87500006 9997950
0.19000001 0.35100001 0.87700003 10787979
0.19400001 0.35200003 0.87900007 9800567
0.19800001 0.35300002 0.88100004 11179394
0.20300001 0.35500002 0.88400006 10193261
0.20700002 0.35600001 0.88600004 8662056
0.21200001 0.35700002 0.88800007 11417146
0.21600001 0.35800001 0.89000005 11812414
0.22000001 0.35900003 0.89200002 10625068
0.22500001 0.36000001 0.89400005 11019826
0.23 0.36100003 0.89700001 11216692
0.23400001 0.36300001 0.89900005 11085107
0.23800001 0.36300001 0.90000004 10953778
0.24300002 0.36400002 0.90200007 11215923
0.24800001 0.36600003 0.90500003 8330790
0.25500003 0.37 0.91500002 5590863
-0.14400001 0.32900003 0.81600004 11743555
-0.14 0.32800001 0.81400001 12397635
-0.13600001 0.32700002 0.81100005 12069954
-0.132 0.32500002 0.80600005 12266049
-0.12800001 0.32200003 0.79900002 12135232
-0.123 0.31900001 0.79200006 12200769
-0.119 0.31600001 0.78500003 12200513
-0.11400001 0.31200001 0.77700001 12069181
-0.11000001 0.30900002 0.77000004 12003647
-0.10600001 0.30700001 0.76400006 11937854
-0.101 0.30400002 0.75700003 12003647
-0.098000005 0.30100003 0.75100005 12003647
-0.094000004 0.29900002 0.74500006 11873086
-0.090000004 0.296 0.73900002 11480384
-0.086000003 0.29500002 0.73600006 9838891
-0.083000004 0.294 0.73400003 11346993
-0.080000006 0.294 0.73300004 11412272
-0.077000007 0.294 0.73400003 11346737
-0.074000001 0.294 0.73500001 11412531
-0.071000002 0.29500002 0.73600006 11280945
-0.068000004 0.29500002 0.73700005 11215152
-0.065000005 0.296 0.73900002 11280945
-0.062000003 0.296 0.74100006 11149871
-0.059000004 0.29700002 0.74200004 11281456
-0.056000002 0.29700002 0.74300003 11215920
-0.053000003 0.29800001 0.74500006 11347508
-0.050000001 0.29800001 0.74600005 11281973
-0.047000002 0.29900002 0.74800003 11149618
-0.044000003 0.29900002 0.74900001 11808317
-0.041000001 0.30000001 0.75100005 11019058
-0.037 0.30000001 0.75200003 11615047
-0.034000002 0.30100003 0.75400001 12600661
-0.031000001 0.30200002 0.75500005 10230320
-0.028000001 0.30200002 0.75700003 11222346
-0.025 0.303 0.75900006 11484752
-0.022000002 0.30400002 0.76200002 10163244
-0.019000001 0.30500001 0.76400006 10425903
-0.016000001 0.30500001 0.76500005 10623025
-0.013 0.30600002 0.76700002 10623025
-0.0090000005 0.30700001 0.76900005 10754097
-0.0060000001 0.30700001 0.77000004 10688558
-0.003 0.30800003 0.77200001 10754094
0 0.30900002 0.77400005 10819887
0.003 0.31 0.77600002 10950705
0.0070000002 0.31 0.77700001 10950705
0.010000001 0.31100002 0.77900004 10819375
0.013 0.31200001 0.78100002 10819889
0.017000001 0.31200001 0.78200006 10425900
0.020000001 0.31300002 0.78400004 10425899
0.023000002 0.31400001 0.78600001 10491437
0.027000001 0.31500003 0.78800005 10557743
0.030000001 0.31500003 0.78900003 10098733
0.033 0.31600001 0.79100001 10164526
0.037 0.317 0.79300004 10361904
0.040000003 0.31800002 0.79500002 10361391
0.044000003 0.31800002 0.79700005 10821942
0.047000002 0.31900001 0.79900002 10690611
0.050000001 0.32000002 0.80100006 10624818
0.054000001 0.32100001 0.80200005 11216441
0.057000004 0.32100001 0.80400002 10427184
0.061000004 0.32200003 0.80600005 10295852
0.065000005 0.324 0.80900002 10295598
0.068000004 0.324 0.81100005 11282747
0.072000004 0.32500002 0.81300002 10757682
0.075000003 0.32600001 0.81500006 10888240
0.079000004 0.32700002 0.81700003 11151410
0.083000004 0.32800001 0.81900007 11940670
0.086000003 0.32900003 0.82100004 11019054
0.090000004 0.33000001 0.82300001 11441014
0.094000004 0.33000001 0.82400006 10853004
0.097000003 0.33100003 0.82600003 10328461
