# .PCD v0.7 - Point Cloud Data file format
VERSION 0.7
FIELDS x y z rgb
SIZE 4 4 4 4
TYPE F F F U
COUNT 1 1 1 1
WIDTH 1313
HEIGHT 1
VIEWPOINT 0 0 0 1 0 0 0
POINTS 1313
DATA ascii
0.40900001 0.14600001 1.036 1840145
0.36800003 0.15400001 1.039 4468256
0.37200001 0.15400001 1.0380001 4468256
0.37600002 0.15400001 1.0370001 4402463
0.38100001 0.15400001 1.036 4336670
0.38500002 0.15400001 1.0350001 4336670
0.39200002 0.15400001 1.0350001 4139805
0.40400001 0.15000001 1.0350001 2299408
0.41000003 0.15100001 1.039 1248009
0.37200001 0.15800001 1.039 4402463
0.377 0.15800001 1.0380001 4468256
0.38100001 0.15800001 1.0370001 4402463
0.38600001 0.15800001 1.036 4336670
0.39000002 0.15900001 1.036 4205855
0.39500001 0.15900001 1.036 4008222
0.40133333 0.15633334 1.0363333 3219735
0.40500003 0.15900001 1.0380001 1444360
0.41000003 0.155 1.039 1445903
0.37300003 0.163 1.039 4402463
0.377 0.163 1.0380001 4402463
0.38200003 0.163 1.0380001 4402463
0.38600001 0.163 1.0370001 4271647
0.39100003 0.163 1.0370001 4140062
0.39600003 0.163 1.0370001 4008476
0.40100002 0.164 1.0380001 3614752
0.40600002 0.164 1.039 1181443
0.37800002 0.16700001 1.039 4336671
0.38200003 0.16800001 1.039 4270878
0.38700002 0.16800001 1.0380001 4205086
0.39100003 0.16800001 1.0380001 4139550
0.39600003 0.16800001 1.0380001 4073758
0.40100002 0.16800001 1.039 3942944
0.40600002 0.16800001 1.039 1116163
0.38200003 0.17200001 1.039 4336671
0.38700002 0.17200001 1.039 4336927
0.39200002 0.17200001 1.039 4205342
0.39700001 0.17300001 1.039 4074269
0.34100002 0.19700001 1.039 5394775
0.347 0.19700001 1.0355 5131602
0.35500002 0.19700001 1.0370001 4342077
0.33600003 0.2 1.0350001 5460312
0.34 0.26800001 1.0380001 4143168
0.33400002 0.27200001 1.0350001 4077888
0.33500001 0.27600002 1.0350001 4143681
0.33000001 0.28 1.0350001 4143427
0.33500001 0.28100002 1.0350001 4143425
0.32600001 0.28500003 1.036 4406853
0.33100003 0.28500003 1.0350001 4143681
0.33500001 0.28500003 1.0350001 4208706
0.32300001 0.29000002 1.039 4473675
0.32700002 0.292 1.0370001 4275012
0.33100003 0.292 1.036 4077888
0.33500001 0.29000002 1.0350001 4077375
0.32300001 0.29700002 1.039 4605261
0.32700002 0.29900002 1.0370001 4077888
0.33200002 0.29900002 1.036 4208961
0.33600003 0.29700002 1.036 4274241
0.34 0.29500002 1.0350001 4142654
0.324 0.30400002 1.039 4605261
0.32800001 0.30400002 1.0370001 4078145
0.33200002 0.30400002 1.036 4339519
0.33700001 0.30400002 1.036 4143167
0.34100002 0.30200002 1.036 4142911
0.324 0.30900002 1.039 4605516
0.32800001 0.30900002 1.0380001 4143937
0.333 0.30900002 1.0380001 4405569
0.33700001 0.30900002 1.0380001 4143421
0.34200001 0.30900002 1.0370001 4012092
0.32800001 0.31300002 1.0380001 4274753
0.333 0.31400001 1.0380001 4405312
0.33800003 0.31400001 1.0380001 4274237
0.34200001 0.31400001 1.0380001 4208446
0.32900003 0.31800002 1.039 4077887
0.333 0.31800002 1.0380001 4339519
0.33800003 0.31800002 1.0380001 4208702
0.34300002 0.31900001 1.039 4077374
0.32900003 0.32300001 1.039 4209217
0.33400002 0.32300001 1.039 4339775
0.33900002 0.32300001 1.039 4209214
0.34300002 0.324 1.039 4143421
0.33200002 0.32800001 1.039 4273983
0.33900002 0.32800001 1.039 4077374
0.33000001 0.33200002 1.039 4471362
0.33700001 0.333 1.039 4208701
0.41000003 0.068000004 1.044 6901826
0.377 0.072000004 1.044 6574411
0.38100001 0.072000004 1.044 6509131
0.40400001 0.072000004 1.041 7229758
0.35300002 0.076000005 1.044 6574151
0.35700002 0.076000005 1.041 6574151
0.303 0.084000006 1.044 6375224
0.30700001 0.084000006 1.0420001 6309431
0.31100002 0.084000006 1.041 6243640
0.32600001 0.080000006 1.044 6046776
0.33200002 0.080000006 1.0420001 5980983
0.33800003 0.080000006 1.0400001 6046776
0.27200001 0.088000007 1.044 6243640
0.27600002 0.088000007 1.0430001 6243896
0.28 0.088000007 1.0420001 6243896
0.287 0.087000005 1.0405 6177846
0.259 0.092000008 1.044 6441019
0.26300001 0.092000008 1.0420001 6177847
0.26700002 0.092000008 1.0420001 6177845
0.27100003 0.092000008 1.041 6046261
0.27500001 0.092000008 1.0400001 5914932
0.28 0.092000008 1.0400001 5783604
0.25400001 0.096000001 1.044 5059366
0.259 0.096000001 1.0430001 4994343
0.26300001 0.096000001 1.0420001 4796709
0.26700002 0.096000001 1.041 4862502
0.27100003 0.096000001 1.0400001 4928295
0.25766668 0.10133333 1.0436667 5125414
0.26300001 0.102 1.0425 4994084
0.26700002 0.102 1.0415001 4993829
0.27150002 0.102 1.0405 4993572
0.27600002 0.102 1.0405 4993573
0.28 0.104 1.0400001 4993573
0.264 0.109 1.044 5059365
0.26800001 0.109 1.0430001 4993571
0.27200001 0.109 1.0430001 4927780
0.27600002 0.109 1.0420001 4862500
0.28 0.109 1.041 4796709
0.287 0.109 1.0405 4796964
0.27200001 0.11300001 1.044 4862757
0.27700001 0.11300001 1.0430001 4862757
0.28100002 0.11300001 1.0420001 4796965
0.287 0.11300001 1.0415001 4862502
0.294 0.11300001 1.0400001 4863015
0.28100002 0.11800001 1.044 4927525
0.28600001 0.11800001 1.0430001 4796709
0.292 0.11800001 1.0425 4862502
0.29900002 0.11800001 1.041 4862502
0.303 0.11800001 1.0400001 4796709
0.29100001 0.12200001 1.044 4731173
0.29700002 0.12200001 1.0435001 4665380
0.303 0.12200001 1.0420001 4665123
0.30800003 0.12200001 1.041 4665123
0.31200001 0.12200001 1.0400001 4730916
0.30200002 0.127 1.0435001 4665378
0.30800003 0.127 1.0430001 4731171
0.31300002 0.127 1.0420001 4731171
0.317 0.127 1.041 4599583
0.32100001 0.127 1.041 4731169
0.32600001 0.127 1.0400001 4796964
0.30900002 0.13100001 1.044 4731171
0.31300002 0.13100001 1.0430001 4731171
0.317 0.13100001 1.0420001 4665376
0.32200003 0.13100001 1.0420001 4599583
0.32600001 0.13100001 1.041 4665378
0.33000001 0.13100001 1.0400001 4599584
0.33500001 0.13100001 1.0400001 4468513
0.42000002 0.134 1.0400001 4734517
0.31300002 0.13600001 1.044 4600096
0.31800002 0.13600001 1.0430001 4534049
0.32200003 0.13600001 1.0430001 4534049
0.32600001 0.13600001 1.0420001 4665635
0.33100003 0.13600001 1.0420001 4599842
0.33500001 0.13600001 1.041 4534817
0.34 0.13600001 1.0400001 4534304
0.31800002 0.14 1.044 4665635
0.32300001 0.14 1.044 4665635
0.32700002 0.14 1.0430001 4599842
0.33100003 0.14 1.0430001 4534049
0.33600003 0.14 1.0420001 4534562
0.34200001 0.14 1.0405 4534049
0.34900001 0.14 1.0400001 4534049
0.41500002 0.142 1.0400001 1183758
0.32700002 0.14500001 1.044 4534049
0.33200002 0.14700001 1.0435001 4534049
0.33650002 0.14700001 1.0435001 4534303
0.3405 0.14700001 1.0425 4468256
0.34633335 0.14633334 1.0413333 4468256
0.35266671 0.14766668 1.041 4402718
0.35800001 0.149 1.0400001 4534303
0.41600001 0.147 1.041 986639
0.34100002 0.15400001 1.044 4534049
0.34600002 0.15400001 1.0430001 4534305
0.35000002 0.15400001 1.0430001 4468769
0.35700002 0.15400001 1.0415001 4534049
0.36300001 0.15400001 1.0400001 4468257
0.41700003 0.15200001 1.0430001 1315348
0.34600002 0.15800001 1.044 4599843
0.35100001 0.15800001 1.044 4599843
0.35700002 0.15800001 1.0425 4468257
0.36400002 0.15800001 1.041 4402464
0.36800003 0.15800001 1.0400001 4402463
0.41700003 0.156 1.0430001 1052177
0.35600001 0.163 1.044 4599843
0.36200002 0.163 1.0415001 4468257
0.36800003 0.163 1.0400001 4534049
0.41100001 0.16000001 1.0400001 2827557
0.41700003 0.16000001 1.0420001 986382
0.35600001 0.16700001 1.044 4534050
0.36200002 0.16700001 1.0425 4336671
0.36900002 0.16700001 1.041 4336671
0.37300003 0.16700001 1.0400001 4270877
0.41200003 0.16700001 1.041 1972760
0.41700003 0.16700001 1.0415001 1183757
0.36100003 0.17200001 1.044 4534050
0.36700001 0.17200001 1.0425 4402464
0.37400001 0.17200001 1.041 4468256
0.37800002 0.17200001 1.0400001 4402464
0.40200001 0.17300001 1.0400001 3155746
0.40700001 0.17300001 1.041 1248008
0.41200003 0.17400001 1.0420001 1182985
0.41700003 0.17400001 1.041 1313282
0.36600003 0.177 1.044 4271648
0.37200001 0.177 1.0425 4402464
0.37900001 0.177 1.041 4271135
0.38300002 0.177 1.041 4139805
0.38800001 0.177 1.0400001 4008476
0.39200002 0.177 1.0400001 4008222
0.39800003 0.177 1.041 3877151
0.40300003 0.178 1.0420001 3286301
0.40800002 0.178 1.0420001 919299
0.41300002 0.178 1.044 1182726
0.41700003 0.178 1.0420001 2234640
0.37 0.18100001 1.044 4074015
0.37700003 0.18100001 1.0425 3679257
0.384 0.18100001 1.041 3876379
0.38800001 0.18100001 1.041 3810843
0.39300001 0.18200001 1.041 3876636
0.39800003 0.18200001 1.0420001 3876638
0.40300003 0.18200001 1.0430001 3088408
0.40900001 0.18300001 1.044 1642251
0.38500002 0.186 1.044 3284501
0.39000002 0.186 1.044 3350294
0.33800003 0.19700001 1.0430001 5328982
0.333 0.20100001 1.0400001 5460568
0.36100003 0.20300001 1.0420001 4407872
0.31766668 0.29633334 1.0406667 4671054
0.31100002 0.30000001 1.044 4802640
0.31633335 0.30266669 1.0413333 4671054
0.30700001 0.30900002 1.044 4736847
0.31100002 0.30700001 1.0435001 4671054
0.31700003 0.30900002 1.0405 4671054
0.30700001 0.31400001 1.044 4737104
0.31100002 0.31400001 1.0430001 4736845
0.31600001 0.31400001 1.0420001 4671052
0.32200003 0.31400001 1.0405 4671052
0.30700001 0.31800002 1.044 4868431
0.31200001 0.31800002 1.0430001 4736846
0.31600001 0.31800002 1.0420001 4736589
0.32000002 0.31800002 1.041 4670539
0.32500002 0.31800002 1.0400001 4671564
0.30800003 0.32300001 1.044 4802382
0.31200001 0.32300001 1.0430001 4867918
0.31600001 0.32300001 1.0420001 4802124
0.32100001 0.32300001 1.041 4736588
0.32500002 0.32300001 1.0400001 4737357
0.31200001 0.32800001 1.0430001 4802638
0.317 0.32800001 1.0430001 4867918
0.32100001 0.32800001 1.0420001 4736332
0.32500002 0.32800001 1.0400001 4868687
0.34400001 0.32900003 1.041 4208444
0.31300002 0.333 1.044 4736845
0.317 0.333 1.0430001 4671052
0.32100001 0.333 1.0420001 4670796
0.32600001 0.333 1.041 4868687
0.34500003 0.33400002 1.041 4077629
0.317 0.33700001 1.0430001 4736332
0.32200003 0.33800003 1.0430001 4736332
0.32600001 0.33800003 1.0420001 4999759
0.33000001 0.33700001 1.0400001 4077887
0.33500001 0.33800003 1.0400001 4340030
0.34 0.33800003 1.0400001 4273979
0.34500003 0.33800003 1.041 4142900
0.31800002 0.34200001 1.044 4736845
0.32300001 0.34300002 1.044 4671052
0.32700002 0.34300002 1.0430001 5065809
0.33100003 0.34200001 1.041 4208959
0.33600003 0.34300002 1.041 4274496
0.34100002 0.34300002 1.041 4667201
0.34600002 0.34400001 1.0420001 4405051
0.32800001 0.34800002 1.044 4802891
0.33200002 0.34800002 1.0430001 4405568
0.33600003 0.34800002 1.0420001 4143679
0.34100002 0.34800002 1.0420001 4274237
0.347 0.34900001 1.044 4602426
0.333 0.35300002 1.044 4273983
0.33700001 0.35200003 1.0420001 4143167
0.34200001 0.35300002 1.044 4273725
0.333 0.35800001 1.044 4405569
0.33800003 0.35800001 1.044 4143167
0.34300002 0.35800001 1.044 4208191
0.14300001 0.36200002 1.044 3748145
0.33800003 0.36300001 1.044 4143421
0.14300001 0.36700001 1.044 2827301
0.14400001 0.37200001 1.044 3155752
0.14400001 0.37600002 1.044 3879475
0.34500003 0.46100003 1.0420001 4142647
0.34500003 0.46600002 1.041 3946040
0.41100001 0.064000003 1.0480001 6312009
0.36900002 0.072000004 1.0480001 6574410
0.37300003 0.072000004 1.046 6508618
0.38600001 0.072000004 1.0450001 6442825
0.39300001 0.072000004 1.049 2956825
0.39800003 0.073000006 1.049 1968900
0.40100002 0.072000004 1.046 4994343
0.347 0.076000005 1.046 6573893
0.28600001 0.084000006 1.0480001 6374713
0.29100001 0.084000006 1.0470001 6243382
0.29700002 0.084000006 1.0455 6178103
0.31800002 0.080000006 1.0480001 6309433
0.32200003 0.080000006 1.046 6178362
0.25600001 0.088000007 1.049 6572090
0.26200002 0.088000007 1.0470001 6374968
0.26800001 0.088000007 1.0450001 6309433
0.23400001 0.092000008 1.049 6835259
0.23800001 0.092000008 1.0480001 6835259
0.24200001 0.092000008 1.0480001 6835262
0.24600001 0.092000008 1.0470001 6835005
0.25100002 0.092000008 1.046 6769468
0.25500003 0.092000008 1.0450001 6637883
0.22900002 0.096000001 1.049 5322536
0.23300001 0.096000001 1.0480001 5322281
0.23800001 0.096000001 1.0470001 5190951
0.24200001 0.096000001 1.0470001 5256231
0.24600001 0.096000001 1.046 5256488
0.25 0.096000001 1.0450001 5125157
0.22766668 0.10133334 1.0486667 5453866
0.2335 0.102 1.0475001 5453611
0.23800001 0.102 1.0475001 5453611
0.24200001 0.102 1.0470001 5322538
0.24600001 0.102 1.046 5322538
0.25050002 0.102 1.0455 5322022
0.25500003 0.104 1.0450001 5256486
0.22900002 0.109 1.049 5322024
0.23400001 0.109 1.049 5387818
0.23800001 0.109 1.0480001 5322025
0.24200001 0.109 1.0480001 5387818
0.24700001 0.109 1.0470001 5322025
0.25100002 0.109 1.0470001 5256230
0.25700003 0.109 1.0455 5124901
0.24300002 0.11300001 1.049 5387818
0.24700001 0.11300001 1.0480001 5387818
0.25100002 0.11300001 1.0480001 5322023
0.25500003 0.11300001 1.0470001 5125157
0.26200002 0.11300001 1.0455 4994086
0.26800001 0.11300001 1.0450001 5059622
0.24700001 0.11800001 1.049 5256230
0.25100002 0.11800001 1.0480001 5190950
0.25600001 0.11800001 1.0470001 5190950
0.26200002 0.11800001 1.0465 5059623
0.26900002 0.11800001 1.046 4993318
0.273 0.11800001 1.0450001 4993318
0.27700001 0.11800001 1.0450001 4993318
0.252 0.12200001 1.049 5256232
0.25600001 0.12200001 1.0480001 5190952
0.26000002 0.12200001 1.0480001 5059368
0.26700002 0.12200001 1.0470001 4993575
0.273 0.12200001 1.0470001 4862502
0.27800003 0.12200001 1.046 4862502
0.28200001 0.12200001 1.0450001 4796709
0.28600001 0.12200001 1.0450001 4796709
0.25600001 0.126 1.049 5190952
0.26100001 0.126 1.049 4993573
0.26700002 0.126 1.0485001 5059366
0.27400002 0.127 1.0480001 4862757
0.27800003 0.127 1.0470001 4928295
0.28200001 0.126 1.046 4796709
0.287 0.127 1.046 4796709
0.29100001 0.127 1.0450001 4730916
0.29500002 0.127 1.0450001 4862502
0.27200001 0.13100001 1.049 4862756
0.27800003 0.13100001 1.0480001 4731428
0.28300002 0.13100001 1.0470001 4862758
0.287 0.13100001 1.0470001 4862502
0.29200003 0.13100001 1.0470001 4796709
0.296 0.13100001 1.046 4796709
0.30000001 0.13100001 1.0450001 4796964
0.30500001 0.13100001 1.0450001 4796964
0.42200002 0.13000001 1.046 4734516
0.27900001 0.13500001 1.049 4796964
0.28300002 0.13600001 1.049 4862502
0.287 0.13500001 1.0480001 4796709
0.29200003 0.13600001 1.0480001 4796709
0.296 0.13600001 1.0470001 4730916
0.30000001 0.13600001 1.046 4730916
0.30700001 0.13600001 1.0450001 4665378
0.29200003 0.14 1.049 4796709
0.29700002 0.14 1.0480001 4796709
0.30100003 0.142 1.0475001 4665636
0.30500001 0.14 1.046 4731428
0.31200001 0.14 1.0455 4534305
0.29700002 0.14500001 1.049 4730916
0.30200002 0.149 1.049 4665635
0.30600002 0.14700001 1.0480001 4665635
0.31133333 0.14633335 1.0470001 4665634
0.31766668 0.14766668 1.0463333 4665634
0.32350001 0.14700001 1.0455 4534049
0.32800001 0.149 1.0450001 4599330
0.31100002 0.15400001 1.049 4731171
0.31700003 0.15400001 1.0475001 4731171
0.324 0.15400001 1.0470001 4599585
0.32800001 0.15400001 1.046 4599842
0.333 0.15400001 1.0450001 4599842
0.33700001 0.15400001 1.0450001 4599842
0.32200003 0.15800001 1.0485001 4731171
0.32900003 0.15800001 1.0470001 4796964
0.333 0.15800001 1.0470001 4665378
0.33800003 0.15800001 1.046 4534560
0.34200001 0.15800001 1.0450001 4534306
0.32900003 0.163 1.049 4665635
0.33400002 0.163 1.0480001 4600099
0.33800003 0.163 1.0470001 4599842
0.34200001 0.163 1.046 4599842
0.347 0.163 1.0450001 4599842
0.35100001 0.163 1.0450001 4599843
0.33400002 0.16700001 1.049 4665889
0.33900002 0.16800001 1.049 4600096
0.34300002 0.16800001 1.0480001 4600096
0.347 0.16800001 1.0470001 4468256
0.35100001 0.16700001 1.0450001 4599843
0.34400001 0.17200001 1.049 4665635
0.34800002 0.17200001 1.0480001 4599843
0.35200003 0.17200001 1.0470001 4665636
0.35600001 0.17200001 1.0450001 4599843
0.34800002 0.177 1.049 4599585
0.35200003 0.177 1.0470001 4665377
0.35700002 0.177 1.046 4599585
0.36100003 0.177 1.0450001 4402976
0.35300002 0.18100001 1.0480001 4599842
0.35700002 0.18100001 1.0470001 4468257
0.36200002 0.18100001 1.046 4402464
0.36600003 0.18100001 1.0450001 4205855
0.41400003 0.18300001 1.0450001 1708811
0.35300002 0.186 1.049 4271907
0.35800001 0.186 1.0480001 4140320
0.36300001 0.186 1.0480001 3878177
0.36700001 0.186 1.0470001 3680029
0.37200001 0.186 1.0470001 2759442
0.37600002 0.186 1.046 3548187
0.38000003 0.186 1.0450001 3547673
0.39500001 0.18700001 1.046 3547673
0.40000001 0.18700001 1.046 3613978
0.40500003 0.18800001 1.0470001 4271910
0.41000003 0.18800001 1.0480001 4404010
0.34150001 0.19400001 1.0475 4934477
0.34850001 0.192 1.0470001 3288879
0.35350001 0.192 1.0475 4077619
0.35800001 0.19000001 1.049 4801080
0.33250004 0.19800001 1.0475 5329238
0.29800001 0.30900002 1.0470001 4868431
0.303 0.30900002 1.046 4868433
0.30700001 0.30500001 1.0450001 4868433
0.294 0.31400001 1.0480001 4934224
0.29900002 0.31400001 1.0470001 4802638
0.303 0.31400001 1.0450001 4802896
0.29700002 0.31850001 1.0470001 4868431
0.303 0.31800002 1.0450001 4868431
0.292 0.32350001 1.0480001 4999760
0.29900002 0.32300001 1.046 4999504
0.303 0.32300001 1.0450001 4868431
0.29000002 0.32800001 1.0480001 5000016
0.29700002 0.32800001 1.0465 4933967
0.303 0.32800001 1.0450001 4868430
0.30800003 0.32800001 1.0450001 4802638
0.28600001 0.333 1.049 4933966
0.29000002 0.33200002 1.0470001 4933966
0.29700002 0.33200002 1.046 4868430
0.30400002 0.333 1.046 4868430
0.30800003 0.333 1.0450001 4802638
0.287 0.33700001 1.049 5000016
0.29100001 0.33700001 1.0480001 4999758
0.29500002 0.33700001 1.0470001 4999758
0.30200002 0.33700001 1.046 4868430
0.30900002 0.33700001 1.0450001 4868431
0.31300002 0.33800003 1.0450001 4671052
0.287 0.34200001 1.049 4933966
0.29100001 0.34200001 1.049 4934477
0.296 0.34200001 1.0480001 4934223
0.30000001 0.34200001 1.0470001 4868430
0.30700001 0.34200001 1.046 4736845
0.31400001 0.34200001 1.0450001 4802638
0.296 0.347 1.049 4999759
0.30100003 0.347 1.0480001 4868431
0.30700001 0.347 1.0465 4802637
0.31400001 0.347 1.046 4868173
0.31900001 0.347 1.0450001 4802380
0.32300001 0.34800002 1.0450001 4802123
0.30100003 0.35200003 1.049 4803150
0.30600002 0.35200003 1.0480001 4802637
0.31 0.35200003 1.0470001 4802637
0.31700003 0.35300002 1.0465 4736587
0.324 0.35200003 1.0450001 4671307
0.32800001 0.35300002 1.0450001 5130575
0.13900001 0.35900003 1.049 4012084
0.14400001 0.35900003 1.049 5130315
0.30200002 0.35700002 1.049 4868431
0.30600002 0.35700002 1.049 4868430
0.31100002 0.35700002 1.0480001 4736844
0.31700003 0.35700002 1.0465 4736844
0.324 0.35800001 1.046 4605771
0.32900003 0.35800001 1.0450001 4670024
0.34800002 0.35500002 1.0480001 5062456
0.30700001 0.36200002 1.049 4802635
0.31100002 0.36200002 1.049 4802637
0.31600001 0.36200002 1.0480001 4736845
0.32000002 0.36200002 1.0470001 4671052
0.32700002 0.36300001 1.0465 4604744
0.33400002 0.36300001 1.0450001 4339776
0.34300002 0.36300001 1.0450001 4273983
0.34900001 0.36000001 1.0480001 5194298
0.31600001 0.36800003 1.049 4671305
0.32100001 0.36800003 1.0480001 4671051
0.32500002 0.36800003 1.0470001 4474698
0.33200002 0.36750001 1.0455 4406337
0.33900002 0.36800003 1.0450001 4143423
0.34400001 0.36900002 1.046 4273981
0.149 0.37300003 1.049 5130573
0.317 0.37200001 1.049 4671051
0.32100001 0.37200001 1.0480001 4736587
0.32500002 0.37200001 1.0470001 4736844
0.33200002 0.37200001 1.0455 4275010
0.33900002 0.37300003 1.046 4273983
0.34500003 0.37400001 1.0480001 4339773
0.149 0.37800002 1.0480001 5392717
0.32200003 0.37800002 1.049 4736586
0.32600001 0.37800002 1.0480001 4736842
0.33100003 0.37800002 1.0470001 4209473
0.33500001 0.37800002 1.046 4274497
0.34 0.37800002 1.0470001 4208444
0.14400001 0.38200003 1.0470001 4142900
0.149 0.38200003 1.046 5129543
0.33100003 0.38300002 1.049 4209473
0.33600003 0.38300002 1.0470001 4339776
0.34100002 0.38300002 1.0480001 4273983
0.14700001 0.38700002 1.0470001 4603196
0.33200002 0.38800001 1.049 4209473
0.33600003 0.38800001 1.0480001 4339776
0.149 0.39100003 1.046 3813682
0.33700001 0.39300001 1.049 4339776
0.149 0.39700001 1.0480001 3090215
0.149 0.40100002 1.0470001 2826786
0.15000001 0.40700001 1.049 2760995
0.15000001 0.41100001 1.0480001 2958626
0.15000001 0.41700003 1.049 3156259
0.34800002 0.42700002 1.0450001 4930098
0.34500003 0.43800002 1.049 4339256
0.34500003 0.44300002 1.0480001 4273725
0.34500003 0.44800001 1.0470001 4207933
0.34600002 0.45300001 1.0470001 3880503
0.34600002 0.45800003 1.046 4077109
0.40700001 0.068000004 1.0500001 7625289
0.36100003 0.072000004 1.054 6574665
0.36500001 0.072000004 1.0500001 6508617
0.33800003 0.076000005 1.052 6573634
0.34200001 0.076000005 1.0500001 6639428
0.27200001 0.084000006 1.053 6374711
0.27800003 0.084000006 1.051 6309431
0.28200001 0.084000006 1.0500001 6375225
0.30600002 0.080000006 1.054 6375224
0.31200001 0.080000006 1.0510001 6309432
0.23900001 0.088000007 1.054 6835003
0.24300002 0.088000007 1.0530001 6835003
0.24700001 0.088000007 1.052 6769210
0.252 0.088000007 1.051 6637624
0.208 0.092000008 1.054 6900796
0.21300001 0.092000008 1.054 6900796
0.21700001 0.092000008 1.052 6835005
0.22100002 0.092000008 1.052 6835005
0.22700001 0.092000008 1.0505 6637883
0.20200001 0.096000001 1.0535001 5716522
0.208 0.096000001 1.052 5650985
0.21200001 0.096000001 1.052 5585449
0.21700001 0.096000001 1.051 5650731
0.22100002 0.096000001 1.0500001 5388072
0.22500001 0.096000001 1.0500001 5387816
0.19600001 0.1 1.054 5716524
0.20200001 0.1 1.0535001 5650731
0.208 0.1 1.052 5519402
0.21300001 0.1 1.052 5453864
0.21700001 0.1 1.051 5519402
0.22100002 0.1 1.0500001 5453609
0.22500001 0.104 1.0500001 5585197
0.19600001 0.105 1.054 5585195
0.20200001 0.105 1.0535001 5585195
0.2085 0.10700001 1.0535001 5453610
0.21300001 0.10700001 1.053 5453866
0.21700001 0.10700001 1.0525 5519402
0.22100002 0.10700001 1.0515001 5519403
0.22600001 0.109 1.051 5650988
0.21700001 0.11300001 1.054 5585195
0.22200002 0.11300001 1.0530001 5454122
0.22600001 0.11300001 1.052 5519915
0.23200001 0.11300001 1.0505 5388074
0.23900001 0.11300001 1.0500001 5387818
0.22200002 0.11800001 1.054 5453609
0.22600001 0.11800001 1.0530001 5453609
0.23200001 0.11800001 1.0515001 5322025
0.23900001 0.11800001 1.051 5387816
0.24300002 0.11800001 1.0500001 5256230
0.22600001 0.12200001 1.054 5453609
0.23100001 0.12200001 1.0530001 5387816
0.23700002 0.12200001 1.0525 5387816
0.24300002 0.12200001 1.051 5387816
0.24800001 0.12200001 1.0500001 5322023
0.23700002 0.12650001 1.0535001 5256488
0.24400002 0.126 1.052 5256745
0.24800001 0.126 1.051 5256745
0.252 0.126 1.0500001 5190952
0.24400002 0.13100001 1.0530001 5256488
0.24800001 0.13100001 1.052 5190952
0.252 0.13100001 1.051 5190952
0.257 0.13100001 1.0500001 5060136
0.26100001 0.13100001 1.0500001 4862757
0.26500002 0.13100001 1.0500001 4862755
0.24800001 0.13500001 1.0530001 5190952
0.25300002 0.13500001 1.0530001 5060136
0.257 0.13500001 1.052 4994343
0.26100001 0.13500001 1.051 4928807
0.266 0.13500001 1.051 4928295
0.27200001 0.13500001 1.0500001 4862758
0.25300002 0.14 1.054 5059624
0.25749999 0.142 1.0535001 4994088
0.26200002 0.142 1.0535001 4928550
0.266 0.142 1.0525 4928550
0.2705 0.142 1.052 4862757
0.27633333 0.14133334 1.0513333 4862502
0.28266668 0.14266668 1.0510001 4796709
0.28800002 0.142 1.0500001 4796709
0.26700002 0.149 1.054 4862757
0.27100003 0.149 1.054 4928550
0.27600002 0.149 1.0530001 4862502
0.28200001 0.149 1.052 4796709
0.289 0.149 1.051 4862502
0.29300001 0.14700001 1.0500001 4796709
0.29700002 0.149 1.0500001 4730916
0.27100003 0.15300001 1.054 4928295
0.27600002 0.15300001 1.054 4994088
0.28200001 0.15300001 1.0525 4862501
0.289 0.15300001 1.052 4928550
0.29300001 0.15300001 1.051 4862757
0.29800001 0.15400001 1.051 4796964
0.30200002 0.15300001 1.0500001 4796964
0.30700001 0.15400001 1.0500001 4796964
0.26700002 0.15800001 1.054 4994088
0.27100003 0.15700001 1.0530001 4994088
0.27600002 0.15800001 1.0530001 4928295
0.28 0.15800001 1.052 4928295
0.287 0.15800001 1.0525 4862757
0.294 0.15800001 1.052 4862757
0.29800001 0.15800001 1.052 4928549
0.303 0.15800001 1.052 4796964
0.30700001 0.15800001 1.051 4796964
0.31100002 0.15800001 1.0500001 4796962
0.31600001 0.15800001 1.0500001 4862755
0.28200001 0.162 1.051 4993831
0.289 0.162 1.052 4862757
0.294 0.162 1.052 4928548
0.29900002 0.163 1.0530001 4928548
0.303 0.163 1.0530001 4863014
0.30700001 0.163 1.052 4797221
0.31200001 0.163 1.052 4731682
0.31600001 0.163 1.051 4665889
0.32100001 0.163 1.0500001 4665378
0.32500002 0.163 1.0500001 4796964
0.289 0.16600001 1.051 4994343
0.294 0.16700001 1.052 4928550
0.29900002 0.16700001 1.0530001 4928550
0.303 0.16700001 1.0530001 4862757
0.30800003 0.16700001 1.052 4797221
0.31200001 0.16700001 1.052 4797221
0.317 0.16700001 1.052 4797475
0.32100001 0.16700001 1.051 4666404
0.32600001 0.16700001 1.051 4731427
0.33000001 0.16700001 1.0500001 4665634
0.29900002 0.171 1.052 5059362
0.303 0.17200001 1.0530001 4928807
0.30800003 0.17200001 1.0530001 4928807
0.31300002 0.17200001 1.0530001 4863014
0.317 0.17200001 1.0530001 4797221
0.32200003 0.17200001 1.0530001 4797221
0.32600001 0.17200001 1.052 4797221
0.33100003 0.17200001 1.052 4797221
0.33700001 0.17200001 1.0505 4731682
0.303 0.17600001 1.052 4928808
0.30800003 0.17600001 1.0530001 4863015
0.31300002 0.17600001 1.0530001 4863014
0.31800002 0.177 1.054 4863015
0.32200003 0.17600001 1.0530001 4797222
0.32700002 0.177 1.0530001 4863015
0.33100003 0.177 1.0530001 4797222
0.33500001 0.177 1.052 4666148
0.34200001 0.177 1.0505 4665634
0.31300002 0.18100001 1.0530001 4797735
0.317 0.18100001 1.0530001 4797222
0.32200003 0.18100001 1.054 4797222
0.32700002 0.18100001 1.054 4797222
0.33100003 0.18100001 1.0530001 4731429
0.33600003 0.18100001 1.0530001 4731685
0.34 0.18100001 1.052 4731428
0.347 0.18100001 1.0505 4599843
0.31800002 0.185 1.0530001 4797478
0.32200003 0.186 1.054 4731687
0.32700002 0.186 1.054 4731686
0.33200002 0.186 1.054 4731431
0.33600003 0.186 1.0530001 4469799
0.34 0.186 1.052 4403493
0.347 0.186 1.0505 4337186
0.41600001 0.18800001 1.0500001 2562320
0.33200002 0.19000001 1.054 1709072
0.33600003 0.19000001 1.0530001 1248779
0.34 0.19000001 1.051 1314572
0.34500003 0.19000001 1.0500001 1643024
0.36400002 0.19100001 1.052 4669496
0.33200002 0.19500001 1.0530001 4999759
0.33600003 0.19500001 1.052 5000270
0.35900003 0.19500001 1.051 4342076
0.35000002 0.29900002 1.0500001 3879215
0.29000002 0.31900001 1.0500001 5065297
0.28200001 0.324 1.052 4934224
0.28600001 0.32200003 1.0510001 4999760
0.27800003 0.32900003 1.0530001 4934223
0.28200001 0.32800001 1.051 5065552
0.28600001 0.32800001 1.0500001 5000016
0.27400002 0.333 1.054 4934480
0.27800003 0.333 1.052 5000016
0.28200001 0.333 1.0500001 5000016
0.27400002 0.33800003 1.0530001 4934223
0.27800003 0.33700001 1.051 5000016
0.28200001 0.33700001 1.0500001 4934477
0.27200001 0.34250003 1.053 4999759
0.27800003 0.34200001 1.051 4868430
0.28200001 0.34200001 1.0500001 4999759
0.27200001 0.347 1.053 4999759
0.27900001 0.347 1.052 5065550
0.28300002 0.347 1.051 5065552
0.287 0.347 1.0500001 4999759
0.29200003 0.347 1.0500001 4934223
0.27000001 0.35200003 1.054 4999759
0.27700001 0.35200003 1.0525 4934478
0.28300002 0.35200003 1.051 4934477
0.28800002 0.35200003 1.051 4934223
0.29200003 0.35200003 1.0500001 5000014
0.29700002 0.35200003 1.0500001 4933966
0.27000001 0.35700002 1.054 4934223
0.27700001 0.35700002 1.0525 4802891
0.28400001 0.35700002 1.052 4802891
0.28800002 0.35700002 1.052 4868686
0.29300001 0.35700002 1.051 4868430
0.29700002 0.35700002 1.0500001 4868430
0.14 0.36400002 1.0500001 4997956
0.27500001 0.36200002 1.054 4934476
0.28200001 0.36200002 1.0530001 4803147
0.289 0.36200002 1.052 4803150
0.29300001 0.36200002 1.052 4802893
0.29800001 0.36200002 1.051 4802892
0.30200002 0.36200002 1.0500001 4737355
0.14 0.36900002 1.051 5788241
0.149 0.36700001 1.0515001 5261392
0.28 0.36700001 1.054 4933964
0.287 0.36700001 1.0535001 4868170
0.294 0.36800003 1.0530001 4933964
0.29800001 0.36700001 1.052 4868684
0.303 0.36700001 1.051 4737355
0.30700001 0.36800003 1.051 4802891
0.31200001 0.36800003 1.0500001 4737098
0.292 0.37200001 1.0535001 4868171
0.29900002 0.37300003 1.0530001 4868684
0.303 0.37300003 1.052 4802889
0.30800003 0.37300003 1.051 4737098
0.31200001 0.37200001 1.0500001 4737098
0.14 0.37500003 1.0530001 6642522
0.29700002 0.3775 1.0535001 4868172
0.30400002 0.37800002 1.0530001 4802891
0.30800003 0.37800002 1.052 4868427
0.31300002 0.37800002 1.051 4737098
0.317 0.37800002 1.0500001 4737098
0.141 0.38000003 1.054 6050642
0.30000001 0.38300002 1.054 4868173
0.30700001 0.38300002 1.0535001 4868172
0.31400001 0.38300002 1.0530001 4736587
0.31800002 0.38300002 1.052 4671051
0.32200003 0.38300002 1.0500001 4605258
0.32700002 0.38300002 1.0500001 4605514
0.34600002 0.38000003 1.0500001 4339774
0.31200001 0.38800001 1.0535001 4802379
0.31800002 0.38800001 1.052 4670794
0.32300001 0.38800001 1.051 4736587
0.32700002 0.38800001 1.0500001 4671048
0.34200001 0.38900003 1.0500001 4339516
0.347 0.38500002 1.052 4208444
0.14500001 0.39300001 1.0500001 5195591
0.31700003 0.39300001 1.0535001 4736587
0.32300001 0.39300001 1.051 4671049
0.32800001 0.39300001 1.051 4670792
0.333 0.39300001 1.0500001 4143680
0.34200001 0.39400002 1.051 4339775
0.34800002 0.39100003 1.0530001 4143164
0.14600001 0.39900002 1.0530001 5787728
0.32200003 0.39900002 1.0535001 4671051
0.32900003 0.39900002 1.052 4736587
0.333 0.39900002 1.051 4274753
0.33800003 0.39900002 1.051 4339519
0.14600001 0.40400001 1.054 5853263
0.21800001 0.40200001 1.0530001 1118225
0.32000002 0.40400001 1.054 4605512
0.32700002 0.40400001 1.0530001 4670794
0.33400002 0.40400001 1.052 4339776
0.33800003 0.40400001 1.051 4405312
0.34300002 0.40000001 1.052 4405312
0.32500002 0.40900001 1.054 4539465
0.33200002 0.40900001 1.0525 4603461
0.33900002 0.40900001 1.052 4339519
0.34400001 0.40500003 1.052 4339517
0.155 0.41400003 1.054 5063751
0.33000001 0.41400003 1.054 4933196
0.33700001 0.41400003 1.0525 4340032
0.34400001 0.41000003 1.0530001 4339005
0.155 0.41900003 1.054 5129542
0.34400001 0.41500002 1.052 4273983
0.15000001 0.42200002 1.0500001 3353384
0.33600003 0.42000002 1.054 4340032
0.34 0.42000002 1.0530001 4077629
0.34500003 0.42000002 1.052 4274236
0.35000002 0.42000002 1.052 4799029
0.15100001 0.42800003 1.052 3222055
0.34100002 0.42500001 1.054 4208191
0.34500003 0.42700002 1.0515001 4142909
0.35000002 0.42500001 1.051 5127476
0.15100001 0.43300003 1.054 3155493
0.34100002 0.43000001 1.054 4143165
0.34500003 0.43400002 1.0500001 4207678
0.34200001 0.43500003 1.054 4011833
0.34200001 0.44000003 1.054 4404542
0.34200001 0.44500002 1.054 4273978
0.34300002 0.45000002 1.054 4273722
0.41500002 0.060000002 1.057 2103575
0.40600002 0.069000006 1.0580001 6835773
0.41100001 0.065000005 1.059 6640195
0.35800001 0.072000004 1.057 6508872
0.33200002 0.076000005 1.0565001 6573376
0.25400001 0.084000006 1.059 6572344
0.25800002 0.084000006 1.0580001 6572090
0.26200002 0.084000006 1.056 6572090
0.266 0.084000006 1.0550001 6506297
0.294 0.080000006 1.059 6309174
0.29800001 0.080000006 1.0580001 6177589
0.30200002 0.080000006 1.056 6309433
0.21800001 0.088000007 1.0580001 6835003
0.22200002 0.088000007 1.0580001 6637624
0.22700001 0.088000007 1.057 6637624
0.23100001 0.088000007 1.056 6769210
0.23500001 0.088000007 1.0550001 6900796
0.18700001 0.092000008 1.057 6900798
0.192 0.092000008 1.057 6966591
0.19600001 0.092000008 1.057 7097405
0.20200001 0.092000008 1.0555 7031869
0.18700001 0.096000001 1.0550001 5913903
0.19100001 0.096000001 1.0550001 5650731
0.19600001 0.096000001 1.0550001 5716522
0.18700001 0.102 1.0550001 5650731
0.19100001 0.1 1.0550001 5716524
0.18700001 0.109 1.056 5650731
0.19150001 0.10700001 1.0555 5584938
0.19600001 0.109 1.0550001 5650990
0.2 0.109 1.0550001 5585197
0.20500001 0.109 1.0550001 5519404
0.18800001 0.11300001 1.057 5650732
0.192 0.11300001 1.057 5584939
0.19600001 0.11300001 1.057 5650477
0.2 0.11300001 1.056 5650477
0.20700002 0.11300001 1.0555 5585197
0.21300001 0.11300001 1.0550001 5716781
0.18800001 0.11800001 1.0580001 5584684
0.192 0.11800001 1.0580001 5584684
0.19600001 0.11800001 1.0580001 5650731
0.20100001 0.11800001 1.0580001 5585195
0.20700002 0.11800001 1.0565 5519403
0.21400002 0.11800001 1.056 5519402
0.21800001 0.11800001 1.0550001 5453609
0.18800001 0.12200001 1.059 5650477
0.192 0.12200001 1.059 5782063
0.19700001 0.12200001 1.059 5650988
0.20100001 0.12200001 1.059 5585195
0.20700002 0.12200001 1.0575001 5453610
0.21400002 0.12200001 1.057 5453609
0.21800001 0.12200001 1.056 5519402
0.22200002 0.12200001 1.0550001 5453609
0.20600002 0.127 1.059 5387816
0.21200001 0.127 1.0580001 5387817
0.21800001 0.127 1.057 5453609
0.22200002 0.127 1.056 5454122
0.22700001 0.127 1.056 5388329
0.23100001 0.127 1.0550001 5322281
0.21200001 0.13100001 1.0585001 5322281
0.21900001 0.13100001 1.0580001 5387816
0.223 0.13100001 1.057 5256743
0.22700001 0.13100001 1.057 5322536
0.23100001 0.13100001 1.056 5322538
0.23600002 0.13100001 1.056 5256232
0.24000001 0.13100001 1.0550001 5190952
0.223 0.13600001 1.059 5190950
0.22700001 0.13600001 1.0580001 5125928
0.23200001 0.13500001 1.057 5256999
0.23600002 0.13600001 1.057 5191207
0.24000001 0.13600001 1.056 5125414
0.245 0.13500001 1.0550001 5125671
0.23200001 0.14 1.059 5125416
0.23700002 0.14 1.059 5125416
0.24100001 0.142 1.0575001 5125673
0.24700001 0.142 1.056 5059880
0.25400001 0.14400001 1.0550001 5059881
0.24100001 0.149 1.059 5060395
0.245 0.149 1.0580001 5125417
0.252 0.149 1.0565 4928808
0.25800002 0.149 1.0550001 4928295
0.26300001 0.149 1.0550001 4928807
0.25400001 0.15300001 1.057 4929064
0.25800002 0.15300001 1.056 4863015
0.26300001 0.15300001 1.0550001 5124905
0.26700002 0.15300001 1.0550001 4994088
0.32300001 0.19000001 1.0550001 2497561
0.32800001 0.19000001 1.0550001 1840401
0.37 0.192 1.0550001 3288105
0.37500003 0.192 1.057 2564125
0.39500001 0.19400001 1.059 4994860
0.32800001 0.19500001 1.0550001 5131344
0.36600003 0.20100001 1.057 4144702
0.27400002 0.32900003 1.0550001 5000017
0.266 0.33400002 1.0580001 5000016
0.27000001 0.33200002 1.0575001 4934223
0.26500002 0.33800003 1.056 5065809
0.27000001 0.33800003 1.0550001 5000016
0.26200002 0.34400001 1.059 4999759
0.26500002 0.34300002 1.0550001 5065552
0.26200002 0.34800002 1.0580001 4999758
0.266 0.34800002 1.056 4999757
0.26200002 0.35300002 1.0580001 5065552
0.266 0.35300002 1.056 4999759
0.26200002 0.35800001 1.0580001 4999759
0.266 0.35700002 1.0550001 5065552
0.26200002 0.36300001 1.0580001 4802894
0.26700002 0.36200002 1.056 4868943
0.27100003 0.36200002 1.0550001 4868943
0.26300001 0.36800003 1.059 4934223
0.26700002 0.36700001 1.057 4934223
0.27100003 0.36700001 1.0550001 4868173
0.27600002 0.36700001 1.0550001 4933966
0.35200003 0.36800003 1.057 5522239
0.15400001 0.37200001 1.059 5130062
0.21200001 0.37400001 1.056 986386
0.26800001 0.37200001 1.0580001 4999759
0.27200001 0.37200001 1.057 4999759
0.27600002 0.37200001 1.056 4999246
0.28100002 0.37200001 1.0550001 4999757
0.28500003 0.37200001 1.0550001 4933965
0.15400001 0.37600002 1.057 5130575
0.26800001 0.37800002 1.059 4868430
0.27200001 0.377 1.057 4868430
0.27700001 0.377 1.057 4868172
0.28100002 0.377 1.0550001 4868171
0.28600001 0.377 1.0550001 4999755
0.29000002 0.37800002 1.0550001 4933965
0.15400001 0.38100001 1.056 5130575
0.273 0.38300002 1.059 4737098
0.27700001 0.38300002 1.0580001 4933962
0.28200001 0.38200003 1.056 4933964
0.28600001 0.38200003 1.056 4933964
0.29100001 0.38300002 1.056 4868173
0.29500002 0.38300002 1.0550001 4933966
0.141 0.38500002 1.0550001 5787725
0.15400001 0.38500002 1.0550001 5129806
0.273 0.38800001 1.059 4868428
0.27800003 0.38800001 1.0580001 4933964
0.28200001 0.38700002 1.057 4868171
0.287 0.38800001 1.057 4868173
0.29100001 0.38800001 1.056 4933966
0.296 0.38800001 1.056 4868173
0.30000001 0.38800001 1.0550001 4868173
0.30500001 0.38800001 1.0550001 4868172
0.141 0.39000002 1.057 5130312
0.15400001 0.39000002 1.0550001 5064269
0.27800003 0.39300001 1.059 4868173
0.28300002 0.39300001 1.0580001 4933966
0.287 0.39300001 1.057 4868173
0.29200003 0.39300001 1.057 4868173
0.296 0.39300001 1.056 4868173
0.30100003 0.39300001 1.056 4868171
0.30500001 0.39300001 1.0550001 4868171
0.31 0.39300001 1.0550001 4802380
0.142 0.39600003 1.059 4998728
0.155 0.39500001 1.0550001 4998476
0.28300002 0.39800003 1.059 4802637
0.28800002 0.39800003 1.059 4802637
0.29200003 0.39800003 1.0580001 4802893
0.29700002 0.39800003 1.057 4737101
0.30200002 0.39800003 1.057 4736844
0.30600002 0.39800003 1.056 4737100
0.31100002 0.39900002 1.056 4736844
0.31500003 0.39900002 1.0550001 4736587
0.34900001 0.39700001 1.057 4273982
0.155 0.40000001 1.0550001 4998729
0.28800002 0.40300003 1.059 4868430
0.29300001 0.40300003 1.059 4802380
0.29700002 0.40300003 1.0580001 4868172
0.30200002 0.40400001 1.0580001 4802379
0.30700001 0.40400001 1.057 4802378
0.31100002 0.40400001 1.056 4802378
0.31600001 0.40400001 1.056 4671305
0.35000002 0.40300003 1.059 4339515
0.14600001 0.40900001 1.056 6248278
0.155 0.40700001 1.0550001 5063752
0.29300001 0.40800002 1.059 4868171
0.29800001 0.40900001 1.059 4868171
0.303 0.40900001 1.0580001 4802891
0.30700001 0.40900001 1.0580001 4802891
0.31200001 0.40900001 1.057 4737099
0.31600001 0.40900001 1.056 4671050
0.32100001 0.40900001 1.0550001 4605258
0.35000002 0.40700001 1.057 4471354
0.14600001 0.41400003 1.056 6379863
0.303 0.41400003 1.059 4802635
0.30800003 0.41400003 1.0580001 4736587
0.31200001 0.41400003 1.0580001 4802380
0.317 0.41400003 1.057 4671051
0.32100001 0.41400003 1.056 4605258
0.32600001 0.41400003 1.0550001 4539719
0.35000002 0.41200003 1.057 4405047
0.30800003 0.41900003 1.059 4736844
0.31300002 0.41900003 1.0580001 4736844
0.35000002 0.41600001 1.0550001 4668991
0.147 0.42000002 1.0580001 6248277
0.156 0.42400002 1.0550001 4998471
0.31800002 0.42000002 1.0580001 4671051
0.32200003 0.42000002 1.057 4539465
0.32700002 0.42000002 1.056 4473672
0.33100003 0.42000002 1.0550001 4538950
0.147 0.42500001 1.059 6511196
0.156 0.42900002 1.056 5064006
0.31300002 0.42500001 1.059 4802380
0.31800002 0.42500001 1.0580001 4670794
0.32300001 0.42500001 1.0580001 4605001
0.32700002 0.42500001 1.057 4539465
0.33200002 0.42500001 1.056 4801610
0.33600003 0.42500001 1.0550001 4208960
0.31900001 0.43000001 1.059 4605001
0.32300001 0.43000001 1.0580001 4539464
0.32800001 0.43000001 1.0580001 4473926
0.33200002 0.43000001 1.057 4670024
0.33700001 0.43000001 1.056 4208960
0.15200001 0.43900001 1.0550001 2892577
0.15700001 0.43600002 1.059 4997956
0.324 0.43600002 1.059 4605512
0.32900003 0.43600002 1.059 4604999
0.333 0.43600002 1.057 4406593
0.33700001 0.43500003 1.056 4208190
0.15200001 0.44400004 1.056 3155493
0.33400002 0.44100001 1.059 4406080
0.33800003 0.44100001 1.0580001 4470076
0.15200001 0.44900003 1.056 2892833
0.33400002 0.44700003 1.059 4209213
0.33900002 0.44700003 1.0580001 3946040
0.15200001 0.45400003 1.056 2827300
0.33900002 0.45200002 1.0580001 4077626
0.15200001 0.45900002 1.056 3024422
0.34200001 0.45650002 1.057 4142397
0.34200001 0.46150002 1.057 4011322
0.15300001 0.46500003 1.0580001 3090214
0.34250003 0.46700001 1.057 4011321
0.34500003 0.47200003 1.056 4142391
0.37900001 0.069000006 1.0630001 6311751
0.38300002 0.069000006 1.0630001 6377287
0.38900003 0.069000006 1.064 6246474
0.40300003 0.069000006 1.064 4008224
0.35250002 0.073000006 1.062 6442823
0.32300001 0.077000007 1.064 6507582
0.32700002 0.077000007 1.0610001 6639168
0.23700002 0.084000006 1.064 6900794
0.24100001 0.084000006 1.0630001 6769210
0.24700001 0.084000006 1.0610001 6769211
0.28600001 0.081 1.062 6637883
0.29000002 0.080000006 1.0610001 6572345
0.18800001 0.088000007 1.0630001 7031612
0.193 0.088000007 1.0630001 7097405
0.19700001 0.088000007 1.0630001 6965821
0.20100001 0.088000007 1.062 7031614
0.20500001 0.088000007 1.0610001 7097406
0.21200001 0.088000007 1.0600001 6965819
0.18800001 0.126 1.0600001 5519404
0.193 0.127 1.0600001 5453611
0.19700001 0.127 1.0600001 5585195
0.20100001 0.127 1.0600001 5519402
0.18800001 0.13100001 1.0610001 5585197
0.193 0.13100001 1.062 5519404
0.19700001 0.13100001 1.062 5453609
0.20200001 0.13100001 1.0610001 5519402
0.20600002 0.13100001 1.0610001 5454122
0.18800001 0.13500001 1.0600001 5453611
0.193 0.13500001 1.062 5453613
0.19700001 0.13600001 1.062 5388329
0.20200001 0.13600001 1.062 5388330
0.20600002 0.13600001 1.062 5388074
0.21000001 0.13600001 1.0610001 5387817
0.21700001 0.13600001 1.0600001 5256487
0.19800001 0.14 1.0630001 5388849
0.20200001 0.14 1.0630001 5125675
0.20700002 0.14 1.0630001 5060137
0.21100001 0.14 1.062 5191463
0.21700001 0.14 1.0610001 5125417
0.22400001 0.14 1.0600001 5125674
0.22800002 0.14 1.0600001 5059881
0.42800003 0.141 1.0610001 4601908
0.222 0.14500001 1.0625 5126448
0.22800002 0.14500001 1.062 5191468
0.23200001 0.14500001 1.0600001 5125676
0.23700002 0.14700001 1.0610001 4994347
0.38200003 0.193 1.0610001 4535855
0.39200002 0.19400001 1.064 4863017
0.26200002 0.34 1.0610001 4934480
0.15000001 0.36300001 1.0600001 5130320
0.13700001 0.36700001 1.0600001 5326924
0.155 0.36900002 1.062 5261649
0.13700001 0.37200001 1.0600001 5392714
0.20700002 0.37100002 1.063 1117711
0.26300001 0.37300003 1.0600001 4933966
0.13700001 0.377 1.0610001 5130827
0.20700002 0.37600002 1.063 1183505
0.13700001 0.38300002 1.0630001 5130568
0.20700002 0.38050002 1.063 1315347
0.26900002 0.38300002 1.0610001 4802891
0.21000001 0.38600001 1.064 1775898
0.26900002 0.38800001 1.062 4802891
0.16000001 0.39400002 1.064 5064526
0.27200001 0.39300001 1.0610001 4736844
0.16000001 0.39800003 1.064 4998733
0.21400002 0.39500001 1.0610001 1183761
0.27200001 0.39850003 1.062 4802379
0.27900001 0.39800003 1.0600001 4933965
0.142 0.40200001 1.0610001 5064519
0.16000001 0.40300003 1.0630001 4932683
0.215 0.40000001 1.062 1184018
0.27700001 0.40300003 1.0610001 4802380
0.28400001 0.40300003 1.0600001 4802637
0.142 0.40700001 1.062 5195333
0.16100001 0.40800002 1.0630001 5064010
0.215 0.40500003 1.0630001 1183761
0.27100003 0.40900001 1.064 4802380
0.27600002 0.40900001 1.0630001 4868173
0.28200001 0.40800002 1.0605001 4736844
0.289 0.40800002 1.0600001 4868430
0.14300001 0.41200003 1.064 5195335
0.16100001 0.41300002 1.0630001 4932937
0.27600002 0.41400003 1.064 4868173
0.28 0.41400003 1.062 4802380
0.287 0.41400003 1.0610001 4802636
0.294 0.41400003 1.0600001 4802378
0.29900002 0.41400003 1.0600001 4802634
0.14300001 0.41700003 1.064 4932934
0.16100001 0.41700003 1.062 4866890
0.28100002 0.41900003 1.064 4736844
0.28500003 0.41900003 1.062 4737098
0.29000002 0.41900003 1.062 4736841
0.29700002 0.41900003 1.0610001 4736585
0.30400002 0.41900003 1.0600001 4868171
0.16100001 0.42200002 1.062 4801351
0.28100002 0.42400002 1.064 4736585
0.28600001 0.42400002 1.062 4736585
0.29000002 0.42400002 1.062 4736585
0.30200002 0.42400002 1.0605001 4736587
0.16100001 0.42700002 1.0630001 4867144
0.28600001 0.42900002 1.0630001 4736583
0.29500002 0.42500001 1.062 4736585
0.30900002 0.42500001 1.0600001 4736587
0.148 0.43100002 1.0610001 6379608
0.29100001 0.43000001 1.0630001 4670790
0.296 0.43000001 1.0630001 4670792
0.30000001 0.43000001 1.062 4736585
0.30700001 0.43000001 1.0605001 4736587
0.31400001 0.43000001 1.0600001 4605001
0.148 0.43600002 1.062 6314071
0.287 0.43500003 1.064 4736587
0.29200003 0.43500003 1.064 4802378
0.296 0.43500003 1.064 4802378
0.30100003 0.43500003 1.0630001 4736585
0.30500001 0.43500003 1.062 4736585
0.31 0.43500003 1.0610001 4670793
0.31700003 0.43600002 1.0605001 4605001
0.148 0.44200003 1.064 6708574
0.15700001 0.44100001 1.0600001 4932163
0.29200003 0.44000003 1.064 4736583
0.29700002 0.44100001 1.064 4736584
0.30200002 0.44100001 1.064 4736583
0.30600002 0.44100001 1.0630001 4736585
0.31100002 0.44100001 1.062 4736585
0.31500003 0.44100001 1.062 4604999
0.32200003 0.44100001 1.0605001 4670279
0.32900003 0.44100001 1.0600001 4539719
0.149 0.44700003 1.064 6708315
0.15700001 0.44600001 1.0610001 4997956
0.30700001 0.44600001 1.064 4670792
0.31100002 0.44600001 1.0630001 4736585
0.31600001 0.44700003 1.0630001 4670792
0.32100001 0.44700003 1.062 4539206
0.32500002 0.44700003 1.0610001 4473413
0.33000001 0.44700003 1.0600001 4539206
0.149 0.45200002 1.064 6116691
0.15800001 0.45200002 1.062 4932167
0.22600001 0.45000002 1.0610001 1249040
0.31200001 0.45200002 1.064 4670792
0.317 0.45200002 1.064 4670792
0.32100001 0.45200002 1.0630001 4539206
0.32600001 0.45200002 1.062 4473926
0.33000001 0.45200002 1.0610001 4539206
0.33500001 0.45200002 1.0600001 4143419
0.149 0.45700002 1.064 5984594
0.15800001 0.45700002 1.0630001 4866372
0.317 0.45700002 1.064 4539206
0.32200003 0.45800003 1.064 4539206
0.32700002 0.45800003 1.0630001 4408133
0.33100003 0.45800003 1.062 4276804
0.33600003 0.45800003 1.0610001 4077885
0.149 0.46200001 1.0630001 6380379
0.32200003 0.46300003 1.064 4473413
0.32700002 0.46300003 1.0630001 4473669
0.33200002 0.46300003 1.062 4408390
0.33600003 0.46300003 1.0610001 4077628
0.149 0.46700001 1.0630001 6116691
0.32800001 0.46800002 1.064 4342340
0.33200002 0.46800002 1.0630001 4408132
0.33700001 0.46800002 1.062 4011835
0.149 0.47200003 1.062 5656399
0.15300001 0.47100002 1.0600001 3419692
0.333 0.47400004 1.064 4539462
0.33800003 0.47400004 1.0630001 4208701
0.34200001 0.47300002 1.0600001 3946042
0.149 0.47700003 1.0630001 5064004
0.15400001 0.47700003 1.0630001 4208440
0.333 0.47900003 1.064 4604999
0.33800003 0.47900003 1.0630001 4339517
0.41300002 0.056000002 1.0660001 2367003
0.41300002 0.061000004 1.0660001 5984072
0.37100002 0.069000006 1.069 6508617
0.37500003 0.069000006 1.067 6377544
0.39400002 0.069000006 1.0660001 5654338
0.39900002 0.069000006 1.067 1575431
0.40900001 0.065000005 1.0680001 7165509
0.347 0.073000006 1.067 6508100
0.31900001 0.077000007 1.067 6507582
0.23300001 0.084000006 1.0650001 6769723
0.27400002 0.081 1.069 6769467
0.27800003 0.081 1.0680001 6703676
0.28200001 0.081 1.0650001 6637883
0.222 0.085000001 1.0685 6834490
0.22900002 0.085000001 1.067 6637624
0.13700001 0.36400002 1.0650001 5853781
0.15100001 0.36100003 1.0680001 5196113
0.20100001 0.36300001 1.069 1381140
0.20500001 0.36300001 1.0680001 1644823
0.156 0.36600003 1.069 5261649
0.18700001 0.36700001 1.069 4868430
0.192 0.36700001 1.0680001 5131343
0.19600001 0.36700001 1.067 3947069
0.2 0.36700001 1.067 1381141
0.20500001 0.36700001 1.0650001 1578519
0.18300001 0.37200001 1.069 4933966
0.18700001 0.37200001 1.0680001 4933966
0.192 0.37200001 1.067 4999760
0.19600001 0.37200001 1.067 4605000
0.2 0.37200001 1.0660001 1578005
0.16000001 0.37600002 1.069 5130062
0.178 0.377 1.069 4802380
0.18300001 0.377 1.069 4868172
0.18700001 0.377 1.0680001 4868171
0.192 0.377 1.067 4933966
0.19600001 0.37600002 1.0660001 4933194
0.20100001 0.377 1.0660001 1577494
0.16000001 0.38100001 1.0680001 5064526
0.18300001 0.38200003 1.069 4998987
0.18800001 0.38200003 1.0680001 4933451
0.192 0.38200003 1.0680001 4933964
0.19600001 0.38200003 1.067 4933964
0.20100001 0.38100001 1.0660001 1644312
0.13800001 0.38800001 1.0650001 5064523
0.16000001 0.38700002 1.0655 5064525
0.18800001 0.38700002 1.069 5064781
0.192 0.38700002 1.0680001 4998987
0.19700001 0.38700002 1.0680001 4998987
0.20100001 0.38700002 1.067 1775384
0.20600002 0.38600001 1.0660001 1512212
0.13800001 0.39400002 1.067 4998987
0.193 0.39200002 1.069 4998989
0.19700001 0.39200002 1.0680001 5196622
0.20200001 0.39200002 1.0680001 2169887
0.20600002 0.39200002 1.067 1578005
0.21000001 0.39100003 1.0650001 2038556
0.20200001 0.39700001 1.069 2696486
0.20600002 0.39700001 1.0680001 1578261
0.21100001 0.39600003 1.0660001 1973020
0.13900001 0.40000001 1.069 4998985
0.20700002 0.40200001 1.069 1643798
0.21100001 0.40200001 1.067 1512726
0.27100003 0.40400001 1.0650001 4802380
0.21100001 0.40700001 1.0680001 1381140
0.21200001 0.41200003 1.069 1314833
0.21600001 0.41100001 1.0660001 1183761
0.21600001 0.41700003 1.067 1315860
0.27700001 0.41900003 1.0650001 4802637
0.14300001 0.42300001 1.0660001 4998210
0.21700001 0.42200002 1.069 1775898
0.14400001 0.42800003 1.067 4932422
0.21700001 0.42700002 1.069 1842204
0.22100002 0.42600003 1.0650001 1183761
0.27700001 0.42500001 1.0660001 4802378
0.14400001 0.43400002 1.069 4801348
0.162 0.43300003 1.0650001 4801349
0.22200002 0.43200001 1.067 1117968
0.27800003 0.43000001 1.067 4802378
0.28200001 0.43000001 1.0650001 4802377
0.162 0.43900001 1.0660001 4801349
0.22200002 0.43700001 1.0660001 1249556
