# .PCD v0.7 - Point Cloud Data file format
VERSION 0.7
FIELDS x y z rgb
SIZE 4 4 4 4
TYPE F F F U
COUNT 1 1 1 1
WIDTH 1154
HEIGHT 1
VIEWPOINT 0 0 0 1 0 0 0
POINTS 1154
DATA ascii
-0.22866668 0.078333341 0.57866669 16635526
-0.26100001 0.081500009 0.57900006 16706731
-0.25650001 0.081250004 0.57850003 16640423
-0.252 0.081 0.57700002 16639651
-0.24750002 0.081999995 0.5765 16638877
-0.24233335 0.083333336 0.57600003 16637588
-0.23740001 0.082800008 0.57640004 16636556
-0.23233335 0.083333336 0.57733333 16636040
-0.22800002 0.083000004 0.57850003 16569989
-0.22400001 0.083000004 0.57900006 16569216
-0.26100001 0.086500004 0.57900006 16707248
-0.25650001 0.08625 0.57775003 16640681
-0.252 0.086000003 0.57700002 16640424
-0.24750002 0.088 0.57600003 16639388
-0.24233335 0.087666668 0.57566673 16703634
-0.23720002 0.088 0.57580006 16637325
-0.23300001 0.087500006 0.57600003 16571017
-0.229 0.087499999 0.57700002 16636038
-0.22266668 0.087499999 0.57850003 16635266
-0.21800001 0.089000002 0.57900006 16438142
-0.25650001 0.091250002 0.57749999 16641713
-0.252 0.091000006 0.57600003 16706732
-0.2475 0.09300001 0.57600003 16640416
-0.24233335 0.093333341 0.57500005 16704146
-0.23720002 0.092200011 0.57500005 16637324
-0.23250002 0.092500001 0.57550001 16571015
-0.22850001 0.092250004 0.57574999 16635780
-0.22266668 0.092000008 0.57716674 16569730
-0.21800001 0.092000008 0.57850003 16568958
-0.21375 0.092000008 0.57850003 16437372
-0.20733334 0.093000002 0.57866669 16305530
-0.25650001 0.096250005 0.57749999 16641971
-0.252 0.096000001 0.57650006 16509866
-0.24800001 0.098000005 0.57600003 16640416
-0.24200001 0.097500011 0.57500005 16704920
-0.22700001 0.096000001 0.57500005 16571019
-0.22200002 0.095999993 0.57566667 16636553
-0.21766667 0.097333334 0.57533336 16637071
-0.21300001 0.097000003 0.57600003 16636556
-0.20740001 0.096400008 0.57700002 16635526
-0.20266668 0.097000003 0.57800001 16307071
-0.2 0.098000005 0.57900006 16175479
-0.25666666 0.10066667 0.57800001 16707507
-0.25300002 0.101 0.57700002 16641193
-0.24825001 0.103 0.57574999 16641453
-0.24400002 0.101 0.57500005 16772263
-0.20250002 0.1 0.57550001 16043896
-0.19775002 0.101 0.57599998 15781495
-0.19266669 0.10233334 0.57733339 15058288
-0.18900001 0.104 0.57700002 14795895
-0.25600001 0.105 0.57900006 16641970
-0.25300002 0.10600001 0.57700002 16707764
-0.25 0.10800001 0.57600003 16577206
-0.18650001 0.10600001 0.57700002 14467706
-0.18366666 0.10633334 0.57800001 14401658
-0.17833334 0.10833334 0.57733339 13942914
-0.25400001 0.11150001 0.57850003 16643515
-0.25 0.112 0.57600003 16512189
-0.17300001 0.11100001 0.57700002 13285239
-0.16900001 0.11300001 0.57600003 13087343
-0.25150001 0.11650001 0.57800007 16709829
-0.24700001 0.11700001 0.57500005 16776393
-0.16600001 0.115 0.57500005 12495722
-0.163 0.11700001 0.57749999 12429415
-0.24800001 0.12 0.57700002 16710602
-0.15900001 0.12 0.57600003 12429678
-0.155 0.123 0.57900006 12166765
-0.24600001 0.125 0.57800001 16776399
-0.24300002 0.12900001 0.57600003 16710095
-0.15100001 0.126 0.57749999 11969126
-0.146 0.13100001 0.57749999 11836509
0.048 0.133 0.57900006 15650456
0.053000003 0.13150001 0.57900006 14993040
-0.14300001 0.13500001 0.57900006 11376985
-0.14 0.13700001 0.57600003 10850653
0.028000001 0.13800001 0.57800007 15979420
0.032000002 0.13700001 0.57716674 15585696
0.036250003 0.13600001 0.57750005 14533524
0.041200001 0.1366 0.57720006 15386253
0.047000002 0.13700001 0.57722223 15516803
0.053000003 0.13625 0.57850003 14136687
-0.24100001 0.142 0.57700002 16645074
0.024 0.14300001 0.57850003 16438677
0.0265 0.14175001 0.57725 16307606
0.044000003 0.141 0.57500005 13344608
0.048000004 0.14300001 0.5765 14924653
0.053000003 0.141 0.57800001 14201701
0.019000001 0.148 0.57850003 16569488
0.0222 0.147 0.57679999 16438417
0.026000001 0.14600001 0.57500005 16503953
0.048000004 0.14775001 0.5765 14200669
0.053000003 0.14600001 0.57825005 13347163
0.013 0.15400001 0.57850003 16372360
0.018000001 0.15250002 0.57675004 16503692
0.021000002 0.15100001 0.57500005 16569743
0.047666669 0.15233333 0.57633334 11701054
0.052000001 0.15150002 0.57850003 12622672
0.011999999 0.15766667 0.57750005 16436612
0.017000001 0.156 0.57500005 16371076
0.047000002 0.1575 0.57650006 11110990
0.050999999 0.156 0.57850003 11701321
0.0070000002 0.163 0.57850003 16304763
0.011000001 0.162 0.57599998 16172663
0.046000004 0.16275001 0.5765 10519887
0.050000001 0.16100001 0.57900006 10123847
-0.24400002 0.16800001 0.57800001 16711376
0.0060000001 0.1675 0.57775009 15514986
0.010000001 0.16700001 0.57500005 15251557
0.042000003 0.16800001 0.57500005 9598535
0.046000004 0.16733335 0.57733339 8941382
-0.24300002 0.1715 0.57550001 16710869
0.0060000005 0.17225 0.57700002 13870418
0.010000001 0.17300001 0.57500005 13871704
0.038000003 0.17300001 0.57500005 9269316
0.041500002 0.17225 0.57525003 8415302
0.046000004 0.17166668 0.57800007 7231297
-0.252 0.17900001 0.57700002 6984120
-0.24766667 0.17766666 0.57700008 12765896
0.0060000001 0.17775001 0.57800007 12358996
0.010000001 0.17650001 0.57500005 12425046
0.038000003 0.17600001 0.57500005 6967868
0.041500002 0.17600001 0.57500005 6704960
-0.27750003 0.18400002 0.57749999 9942482
-0.27149999 0.18200001 0.57800001 8365766
-0.26666668 0.18166667 0.57833338 7642560
-0.26233336 0.18133335 0.57700008 7445182
-0.25675002 0.18100002 0.57700002 7115449
-0.252 0.18100001 0.57500005 6984891
-0.24900001 0.18100001 0.57500005 6918328
0.0063333339 0.182 0.57733339 9137736
0.010000001 0.18100001 0.57600003 9662786
-0.29200003 0.18800001 0.57900006 11191519
-0.28600004 0.18666667 0.57800001 11191517
-0.28166667 0.18699999 0.57700008 10928603
-0.27800003 0.186 0.57500005 10797017
-0.27350003 0.1855 0.57500005 10139858
-0.26900002 0.185 0.57500005 9153993
-0.29500002 0.19400001 0.57800001 7183560
-0.29150003 0.192 0.57800007 8759758
-0.28800002 0.19150001 0.57700002 9744852
-0.28400001 0.19100001 0.57550001 10139606
-0.29500002 0.19800001 0.57749999 5801654
-0.29100001 0.19700001 0.57550001 6196410
-0.28750002 0.1965 0.57500005 6459326
-0.29100001 0.20100001 0.57500005 5339562
-0.33200002 -0.12400001 0.58000004 6323862
-0.33000001 -0.12200001 0.58200002 9809865
-0.32775003 -0.118 0.58200008 7704745
-0.324 -0.11250001 0.58150005 8163756
-0.32050002 -0.108 0.58150005 10008266
-0.31800002 -0.10600001 0.58250004 6717844
-0.31600001 -0.10300001 0.58200002 5594985
-0.31500003 -0.1 0.58100003 6713210
-0.3125 -0.096500009 0.58249998 8682077
-0.31100002 -0.092000008 0.58000004 13217124
-0.31 -0.093000002 0.58400005 12233342
-0.308 -0.088000007 0.58200002 13479776
-0.30600002 -0.084000006 0.58200002 13414492
-0.30400002 -0.082000002 0.58150005 13610840
-0.301 -0.078000009 0.58200002 13741909
-0.29800001 -0.072500005 0.58200008 14005070
-0.29550001 -0.067500003 0.58050001 14465103
-0.294 -0.067500003 0.58350003 14070345
-0.29500002 -0.063000001 0.58000004 14596430
-0.29233333 -0.062000006 0.58233339 13806912
-0.29125005 -0.057250001 0.58225 14004036
-0.29100001 -0.052250002 0.58200002 14726989
-0.29500002 -0.047000002 0.58000004 15186770
-0.29100001 -0.047250003 0.58200002 15252564
-0.30150002 -0.041000001 0.58000004 15580503
-0.29625002 -0.042000003 0.58075005 15384149
-0.29175001 -0.04225 0.58300006 15383893
-0.31650001 -0.036000002 0.58000004 14989912
-0.31300002 -0.036000002 0.58100003 15318362
-0.30825001 -0.037500001 0.58075005 15777882
-0.30250001 -0.037500001 0.58150005 15778138
-0.29700002 -0.037500001 0.58249998 15646551
-0.29200003 -0.038000003 0.58366674 15318099
-0.32800001 -0.031000001 0.58100003 14464619
-0.32260004 -0.032200001 0.58140004 14793059
-0.31733334 -0.033000004 0.58200002 15121502
-0.31266668 -0.032000002 0.583 15319138
-0.30866668 -0.033000004 0.583 15713119
-0.3035 -0.032500003 0.58350003 15317846
-0.29900002 -0.034000002 0.58400005 15252308
-0.33200002 -0.029000001 0.58050001 10328468
-0.32700002 -0.0275 0.58300006 12760739
-0.32275003 -0.028250001 0.58325005 14533766
-0.317 -0.029000001 0.58400005 14991727
-0.25749999 0.043500002 0.58400005 16639648
-0.2525 0.043000001 0.58400005 16704670
-0.24800001 0.043000001 0.58400005 16572826
-0.266 0.048000004 0.58400005 16641452
-0.26200002 0.047000002 0.58350003 16509349
-0.25749999 0.047000006 0.58350003 16640677
-0.25233337 0.047333334 0.583 16639648
-0.24866669 0.046666671 0.58333331 16639131
-0.24375001 0.047000006 0.58350003 16637845
-0.23800001 0.047499999 0.58400005 16571022
-0.27100003 0.054000001 0.58400005 16773556
-0.26666668 0.052000001 0.58333331 16641456
-0.26199999 0.052333336 0.58166671 16707247
-0.25675002 0.052000001 0.58150005 16641451
-0.25300002 0.052000001 0.58150005 16574629
-0.24849999 0.052000001 0.58175004 16704411
-0.24349999 0.051750001 0.58225 16572308
-0.23760001 0.051200002 0.583 16636300
-0.23266667 0.052000001 0.58366674 16569991
-0.22900002 0.053000003 0.58400005 16701062
-0.2705 0.057500005 0.58350003 16708535
-0.26700002 0.057000004 0.58249998 16642742
-0.26249999 0.057 0.58125007 16642226
-0.25650001 0.057000004 0.58050001 16640680
-0.2525 0.057000004 0.58050001 16639648
-0.24825001 0.056500003 0.58050001 16704410
-0.24300002 0.056500003 0.58100003 16638104
-0.23775001 0.056500003 0.58150005 16636816
-0.23300001 0.056500003 0.58249998 16635526
-0.22833335 0.057 0.58366674 16569217
-0.27166668 0.063000001 0.58333331 16708537
-0.26700002 0.062000003 0.58200002 16707765
-0.26250002 0.061999999 0.58100003 16641452
-0.25650001 0.061500002 0.58000004 16640936
-0.252 0.061500002 0.58000004 16574371
-0.2485 0.061499998 0.58000004 16638876
-0.24250001 0.061500002 0.58000004 16572052
-0.23750001 0.061000004 0.58074999 16636299
-0.23250002 0.061000004 0.58175004 16635011
-0.22775002 0.061000004 0.58324999 16634238
-0.223 0.06133334 0.58400005 16634494
-0.27250004 0.067500003 0.58350003 16643258
-0.26700002 0.067000002 0.58200002 16641711
-0.26249999 0.067000002 0.58050001 16641194
-0.257 0.066000007 0.58000004 16706472
-0.252 0.065000005 0.58000004 16640163
-0.24100001 0.065000005 0.58000004 16637073
-0.23750001 0.066 0.58000004 16702093
-0.23250002 0.066 0.58125007 16569989
-0.22750002 0.066 0.58225 16568960
-0.2225 0.066 0.583 16568959
-0.2172 0.066600002 0.58360004 16634494
-0.21250001 0.068000004 0.58400005 16436857
-0.208 0.069000006 0.58400005 16436600
-0.27250004 0.072500005 0.58350003 16642749
-0.26800001 0.072000004 0.58200002 16642233
-0.26249999 0.072000004 0.58050001 16641714
-0.23600002 0.07 0.58000004 16636301
-0.23200001 0.070666671 0.58000004 16569991
-0.2271667 0.072000004 0.58033329 16569732
-0.22216666 0.071999997 0.58150005 16437372
-0.21740003 0.072399996 0.58239996 16502651
-0.2124 0.072400004 0.58360004 16436858
-0.2085 0.072999999 0.58400005 16173171
-0.27150002 0.077500001 0.58350003 16642745
-0.26699999 0.077333339 0.58166671 16641455
-0.26249999 0.075500004 0.58050001 16772529
-0.22600001 0.078000009 0.58000004 16504197
-0.222 0.078000009 0.58050001 16437372
-0.21700001 0.078000002 0.58150005 16502649
-0.21225001 0.078000002 0.58275002 16370805
-0.208 0.078333341 0.58400005 16305008
-0.27200001 0.081 0.58400005 16576952
-0.2665 0.082000002 0.58150005 16641457
-0.22166668 0.082666673 0.58000004 16502650
-0.21700001 0.083000004 0.58075005 16633977
-0.21200001 0.083000004 0.58200002 16633977
-0.20700002 0.083000004 0.58325005 16436598
-0.20400001 0.084000006 0.58400005 16305268
-0.26700002 0.087250009 0.58200002 16707766
-0.21800001 0.086000003 0.58000004 16568958
-0.21340001 0.087800004 0.58040005 16503165
-0.2076 0.087200001 0.58180004 16502649
-0.20200001 0.087500006 0.58350003 16305526
-0.19900002 0.089000002 0.58400005 16239988
-0.26750001 0.092250004 0.58300006 16708024
-0.26200002 0.091499999 0.58000004 16576692
-0.20766668 0.090999998 0.58033341 16371576
-0.20233333 0.091666676 0.58166671 16108147
-0.19800001 0.092749998 0.58250004 15910253
-0.27000001 0.097500004 0.58400005 16708541
-0.266 0.097500004 0.58200002 16642488
-0.26200002 0.097000003 0.58000004 16708022
-0.19833334 0.096666671 0.58033335 16108917
-0.19360001 0.097199999 0.58240002 15517033
-0.18800001 0.098000005 0.58400005 15253862
-0.2665 0.10250001 0.58249998 16642746
-0.26166669 0.10233334 0.58033341 16642230
-0.19100001 0.1 0.58050001 14925664
-0.18699999 0.10066667 0.58166671 14793826
-0.18400002 0.10300001 0.58249998 14794598
-0.26166669 0.10633334 0.58166671 16643001
-0.257 0.108 0.58000004 16708280
-0.18300001 0.105 0.58100003 14532724
-0.17739999 0.1066 0.58200002 13613423
-0.25850001 0.11250001 0.58250004 16774590
-0.17300001 0.11000001 0.58200002 12890478
-0.16833334 0.11266667 0.58166671 12494946
-0.25600001 0.116 0.58200002 16380097
-0.16600001 0.115 0.58400005 12493659
-0.16150001 0.118 0.58150005 12297570
-0.25 0.123 0.58200002 16710347
-0.15800001 0.12100001 0.58000004 12298092
0.047000002 0.12400001 0.58400005 15192230
0.052000001 0.12400001 0.58366674 14994595
0.058000006 0.12400001 0.58350003 14204304
-0.15100001 0.127 0.58400005 11836767
-0.149 0.12900001 0.58400005 11639129
0.043000001 0.12900001 0.583 16243107
0.046000004 0.127 0.58250004 15454369
0.051999997 0.127 0.58100003 14994077
0.058000006 0.12725 0.58175004 14138506
0.062000003 0.12800001 0.58350003 12427365
-0.24600001 0.133 0.58400005 16644815
-0.14600001 0.13100001 0.58400005 11769434
0.027000001 0.13350001 0.58300006 15389351
0.032000002 0.133 0.58200002 14730650
0.037 0.13233334 0.5826667 15846800
0.041250005 0.132 0.58175004 16570528
0.046500005 0.13100001 0.58025002 15913372
0.058000006 0.13200001 0.58050001 13413487
0.062750004 0.13275 0.58300006 12756322
0.019000001 0.13800001 0.58400005 16505758
0.023000002 0.13733335 0.58233333 16176800
0.026666665 0.13633333 0.58066672 15914660
0.058000002 0.13675001 0.58050001 13412700
0.063000001 0.13750002 0.58325005 12492372
0.018333334 0.14233334 0.58266664 16439446
0.022 0.14066666 0.58033335 16373657
0.058000006 0.14175001 0.58050001 13149525
0.063000001 0.14250001 0.58350003 11834702
-0.24350002 0.14650001 0.58100003 16644813
-0.12400001 0.14500001 0.58200002 9341841
0.013333333 0.14733334 0.58333337 16570515
0.017666668 0.14566667 0.5813334 16504467
0.058000002 0.14650001 0.58050001 12163924
0.062000003 0.14750001 0.583 11440977
-0.24450001 0.1525 0.58350003 16709324
0.0070000002 0.15300001 0.58400005 16635279
0.011999999 0.15133335 0.58166671 16569742
0.017000001 0.15000001 0.58000004 16569744
0.054000001 0.15300001 0.58000004 11965774
0.058000006 0.15175 0.58100003 11506257
0.062000003 0.1525 0.58350003 10718036
-0.245 0.15800001 0.58350003 16579534
0.0063333339 0.15666668 0.58233333 16568969
0.010000001 0.155 0.58100003 16569484
0.052000001 0.15700001 0.58000004 11570509
0.056000002 0.1565 0.58100003 11373904
0.060666669 0.15666668 0.58333331 10125647
-0.24450001 0.16250001 0.58150005 16644817
0.003 0.163 0.58400005 16108155
0.0055000004 0.16150001 0.58075005 16436864
0.052000001 0.16150001 0.58050001 10715723
0.056000002 0.162 0.58225 9730119
0.060000002 0.16250001 0.58400005 8809801
-0.24400002 0.16600001 0.58000004 16776403
0.003 0.1665 0.58249998 15975797
0.05125 0.1665 0.58150005 9005890
0.056000002 0.16600001 0.58400005 8612167
-0.252 0.17300001 0.58400005 7508663
-0.24900001 0.17200001 0.583 16380884
0.0015 0.17150001 0.58275002 15054434
0.048 0.17200001 0.58000004 7231816
0.050999999 0.17133336 0.58233339 7099713
-0.27800003 0.178 0.58400005 7577027
-0.27325004 0.178 0.58275008 7510463
-0.26700002 0.178 0.58250004 7115706
-0.26166669 0.17666668 0.58233333 6918070
-0.25733331 0.17733334 0.58100003 6852534
-0.25225002 0.17600001 0.58100003 6983862
-0.24800001 0.17500001 0.58100003 16117715
0.0015 0.17675 0.58275008 13475925
-0.29150003 0.1825 0.58350003 10600409
-0.28733334 0.18266667 0.58200002 10140373
-0.28350002 0.18200001 0.58200002 9285838
-0.27850002 0.18100002 0.58100003 8694474
0.0015 0.1815 0.58275008 11043148
-0.303 0.18800001 0.58400005 11323362
-0.29650003 0.18700001 0.58225 11322847
-0.29200003 0.186 0.58100003 11454691
-0.289 0.186 0.58000004 11323103
-0.303 0.19000001 0.583 9286101
-0.2976667 0.19133334 0.58100003 9285843
-0.29900002 0.19500001 0.58000004 6657217
-0.32500002 -0.11700001 0.58600003 6586787
-0.32300001 -0.11366668 0.58633333 6256020
-0.31900001 -0.109 0.58700001 10465735
-0.31600001 -0.104 0.58700001 6712167
-0.31400001 -0.101 0.58500004 6184795
-0.3125 -0.096500009 0.58700001 10198166
-0.30900002 -0.093000002 0.588 11842205
-0.30700004 -0.089000002 0.58700001 12299645
-0.30200002 -0.082333334 0.58700007 13545309
-0.30100003 -0.079000004 0.58500004 13741401
-0.29800004 -0.076000005 0.58700001 13741648
-0.29500002 -0.072000004 0.58600003 13873227
-0.29250002 -0.068000004 0.58700001 13280063
-0.29100004 -0.06333334 0.58733338 13280057
-0.29000002 -0.059000004 0.58700001 13740609
-0.28850001 -0.056000002 0.58750004 14201418
-0.28775001 -0.052500002 0.58675003 14595404
-0.287 -0.047500003 0.58600003 14858061
-0.28400001 -0.046000004 0.58900005 14397766
-0.287 -0.0425 0.58600003 15055185
-0.28400001 -0.042500004 0.58900005 14397768
-0.29100001 -0.036000002 0.58500004 14989392
-0.28799999 -0.037500001 0.58724999 14726477
-0.28400001 -0.039000001 0.58900005 14529357
-0.30000001 -0.031000001 0.58500004 14988364
-0.29633334 -0.032000002 0.58600003 14791499
-0.29200003 -0.032499999 0.58724999 14857549
-0.289 -0.034000002 0.588 14726477
-0.33000001 -0.027000001 0.58600003 8422276
-0.32100001 -0.026000001 0.58500004 14533251
-0.31600001 -0.027000001 0.58533335 14860143
-0.31200001 -0.0275 0.5855 15188076
-0.30800003 -0.0275 0.58625007 15121242
-0.30250001 -0.0275 0.58750004 15120466
-0.29733336 -0.028000003 0.588 15186258
-0.29300001 -0.029000001 0.58900005 14989391
-0.32175002 -0.022500001 0.58724999 10394000
-0.31700003 -0.023000002 0.58733338 14467978
-0.31266668 -0.023000002 0.58866668 14400105
-0.2485 0.019000001 0.58900005 16636557
-0.26100001 0.024 0.58900005 16770202
-0.25600001 0.023000002 0.58900005 16637846
-0.25300002 0.022500001 0.58900005 16637331
-0.24825001 0.022500001 0.58850002 16636559
-0.24300002 0.022500001 0.58900005 16635785
-0.23900001 0.024 0.58900005 16635788
-0.27000001 0.029000001 0.58900005 16705440
-0.26700002 0.029000001 0.58900005 16705184
-0.26249999 0.027500002 0.58900005 16573597
-0.25650001 0.0275 0.58850002 16637590
-0.252 0.0275 0.588 16637331
-0.24825001 0.027500002 0.588 16637073
-0.24250001 0.0275 0.588 16636301
-0.23750001 0.0275 0.58875006 16570506
-0.23200001 0.029000001 0.58900005 16635786
-0.22800002 0.029000001 0.58900005 16635786
-0.27149999 0.033 0.58900005 16706213
-0.26733336 0.033000004 0.58833337 16574627
-0.26225001 0.032500003 0.58775002 16574111
-0.25650001 0.032499999 0.58749998 16572825
-0.252 0.032500003 0.58700001 16637589
-0.2475 0.032500003 0.58700001 16637333
-0.24250001 0.032500003 0.58724999 16702866
-0.23725 0.031999998 0.58774996 16570766
-0.23233335 0.03166667 0.58833337 16636299
-0.22866668 0.032333333 0.58833337 16570507
-0.22433335 0.032333333 0.58900005 16438663
-0.27800003 0.039000001 0.58900005 16644280
-0.27350003 0.038000003 0.588 16642221
-0.26750001 0.037500001 0.58700001 16640677
-0.2615 0.037500001 0.58625001 16574367
-0.257 0.037500001 0.58600003 16507801
-0.25300002 0.037500001 0.58600003 16638103
-0.2475 0.037250001 0.58600003 16637588
-0.24225001 0.037 0.58650005 16637074
-0.23675001 0.037 0.58700001 16702095
-0.23300001 0.037 0.58700001 16636299
-0.229 0.037 0.58775002 16570246
-0.22266668 0.037000004 0.58866668 16503679
-0.21700001 0.038000003 0.58900005 16503163
-0.28100002 0.043000005 0.58900005 16709562
-0.27800003 0.043000005 0.588 16709047
-0.27324998 0.042750001 0.58675003 16642223
-0.26675001 0.042500004 0.5855 16641192
-0.26166669 0.042000007 0.58533335 16640161
-0.257 0.041000001 0.58500004 16639391
-0.2525 0.041000001 0.58500004 16573339
-0.24666667 0.041666668 0.58533335 16572310
-0.24233335 0.041666668 0.58566666 16571795
-0.23720002 0.042200003 0.58580005 16636817
-0.23250002 0.042000003 0.58600003 16701577
-0.22875002 0.041999999 0.58675003 16569476
-0.22250003 0.041999999 0.588 16503166
-0.2175 0.042000003 0.58900005 16503164
-0.21350001 0.043000001 0.58900005 16371578
-0.28100002 0.048 0.58850002 16709305
-0.27800003 0.048 0.58700001 16642997
-0.27250004 0.047500003 0.58574998 16642224
-0.26800001 0.046000004 0.58500004 16773294
-0.23650001 0.046000004 0.58500004 16636559
-0.23200001 0.047000002 0.58500004 16570249
-0.22875002 0.047000002 0.58600003 16569477
-0.22250001 0.047000006 0.58733326 16437630
-0.21700001 0.046500001 0.58749998 16503422
-0.21350002 0.046500001 0.58825004 16305785
-0.20866668 0.047000002 0.58866668 16371835
-0.28100002 0.053000003 0.588 16708538
-0.27800003 0.053000003 0.58700001 16642739
-0.27300003 0.052000001 0.58533335 16642226
-0.228 0.050999999 0.58500004 16503940
-0.22233336 0.051500004 0.58649999 16503165
-0.21700001 0.0515 0.58700001 16436857
-0.21300001 0.0515 0.58724999 16371320
-0.208 0.0515 0.58824998 16568186
-0.20400001 0.0515 0.58900005 16502648
-0.28500003 0.057000004 0.58900005 16709053
-0.28100002 0.058000006 0.588 16708280
-0.27800003 0.058000006 0.58650005 16773302
-0.27400002 0.057500005 0.58500004 16642486
-0.22700001 0.055000003 0.58500004 16569217
-0.22300002 0.056500003 0.58525002 16568958
-0.21799999 0.056500003 0.58625001 16502907
-0.21300001 0.056500003 0.58675003 16568442
-0.20740001 0.056000002 0.58780003 16436599
-0.20266668 0.056666672 0.58866668 16239473
-0.28500003 0.061000004 0.58900005 16642489
-0.28150001 0.063000001 0.588 16642489
-0.27800003 0.063000001 0.58600003 16774331
-0.27400002 0.061000004 0.58500004 16708539
-0.22200002 0.060000002 0.58500004 16503163
-0.21775001 0.061000004 0.58525002 16633979
-0.21275002 0.061000004 0.58575004 16502392
-0.20775001 0.061000004 0.58650005 16436341
-0.20300001 0.061000004 0.588 16239216
-0.19900002 0.061000004 0.58900005 16173676
-0.28500003 0.066 0.58900005 16708541
-0.28100002 0.068000004 0.58700001 16774848
-0.27750003 0.068000004 0.5855 16643518
-0.21200001 0.065666668 0.58500004 16502649
-0.20720001 0.066600002 0.58539999 16370806
-0.20275 0.066 0.58700001 16371317
-0.19833334 0.066333331 0.58833337 16042608
-0.28500003 0.071000002 0.58850002 16709058
-0.28100002 0.072999999 0.58700001 16708543
-0.27750003 0.072999999 0.5855 16576956
-0.20600002 0.072999999 0.58500004 16173679
-0.20300001 0.072000004 0.58649999 16173682
-0.19800001 0.072000004 0.58816665 15976304
-0.28650004 0.075000003 0.58900005 16774861
-0.28200001 0.077000007 0.58700001 16643260
-0.27850002 0.078000009 0.58650005 16709058
-0.27500001 0.078000009 0.58500004 16709058
-0.20600002 0.077000007 0.58500004 16239217
-0.20250002 0.078000009 0.58574998 16042093
-0.19800001 0.078000009 0.58700001 16042092
-0.19360001 0.077400006 0.58880007 15844973
-0.28200001 0.080000006 0.588 16708545
-0.27750003 0.083000004 0.58700001 16709312
-0.27350003 0.083000004 0.5855 16708031
-0.20200002 0.082666673 0.58500004 16305267
-0.19750002 0.083000004 0.58574998 16173682
-0.19200002 0.083000004 0.588 15910765
-0.278 0.086000003 0.58800006 16708541
-0.27200001 0.088 0.58500004 16707515
-0.19700003 0.087000005 0.58533335 16042606
-0.19199999 0.088 0.58800006 15581536
-0.27650002 0.091000006 0.58749998 16511423
-0.273 0.09300001 0.58600003 16708285
-0.19600001 0.091000006 0.58500004 15515228
-0.19300002 0.092500009 0.58600003 15449438
-0.18833335 0.093000002 0.58800006 15251801
-0.27750003 0.096500009 0.58850002 16773320
-0.273 0.098000005 0.58600003 16708291
-0.19100001 0.096000001 0.58500004 15516523
-0.18766667 0.096666671 0.58666664 15385450
-0.18366666 0.098000012 0.58833337 14990947
-0.27166668 0.10266667 0.58600003 16708039
-0.182 0.10166667 0.58533335 14596958
-0.17833334 0.10233334 0.58733338 14136920
-0.2665 0.10800001 0.58600003 16512450
-0.17600001 0.10600001 0.58600003 13612644
-0.17333335 0.10733334 0.58700001 13283940
-0.26200002 0.112 0.58500004 16643261
-0.171 0.11000001 0.58500004 12823910
-0.16850001 0.112 0.588 12691806
-0.26100001 0.11700001 0.58900005 16643012
-0.25800002 0.119 0.58700001 16576453
-0.16350001 0.11650001 0.58749998 12296533
-0.25400001 0.12100001 0.58500004 16577992
-0.1575 0.12100001 0.5855 11903070
-0.15400001 0.12400001 0.58500004 11837279
0.042333335 0.123 0.58766669 15783595
0.046000004 0.12160001 0.58700001 15258280
0.050999999 0.12100001 0.58700001 14600863
0.056600004 0.12120001 0.5862 14270611
0.062333334 0.12133334 0.58716673 13348990
0.067000002 0.123 0.58900005 11244126
-0.24900001 0.12900001 0.58500004 16710859
0.0372 0.1274 0.58760005 16308902
0.040750004 0.127 0.58574998 15979937
0.064000003 0.127 0.58533335 12296550
0.067000002 0.12650001 0.588 11902821
-0.14500001 0.134 0.58600003 11113301
0.019000001 0.134 0.588 16571563
0.023000002 0.133 0.58700001 16177579
0.027999999 0.131 0.58666664 15060647
0.032000002 0.13050002 0.58650005 15453336
0.036000002 0.13100001 0.58500004 16439965
0.068000004 0.13125001 0.58750004 11310688
-0.14300001 0.13700001 0.58900005 5260088
0.014 0.13900001 0.588 16636831
0.017666668 0.13733335 0.58666664 16637348
0.021000002 0.13600001 0.58500004 16505763
0.0678 0.1366 0.58679998 11310165
-0.139 0.141 0.58850002 3355993
-0.132 0.14300001 0.58500004 3750497
0.013 0.14274999 0.58675003 16570777
0.017000001 0.141 0.58500004 16636571
0.068000004 0.142 0.58700001 11113046
0.0070000002 0.148 0.58800006 16701845
0.010500001 0.14650001 0.58650005 16702104
0.064000003 0.148 0.58500004 10981205
0.067000002 0.147 0.58600003 11113565
0.07 0.146 0.588 10587223
0.003 0.15400001 0.58900005 16504204
0.0056666671 0.15233333 0.58666664 16635534
0.066 0.15200001 0.58600003 10192728
0.07 0.15100001 0.58850002 9667159
0.0020000001 0.15800001 0.58733338 16372359
0.0050000004 0.156 0.58500004 16569997
0.062000003 0.15900001 0.58500004 9205069
0.066 0.15700001 0.58650005 8876881
0.07 0.15650001 0.58850002 7759177
0.001 0.16233334 0.5866667 16108412
0.062000003 0.16250001 0.5855 8020803
0.066333331 0.16133334 0.58733338 7626569
0.07 0.16000001 0.58900005 7232329
-0.25400001 0.16900001 0.58900005 7508400
-0.25 0.16800001 0.58700001 16578514
-0.0020000001 0.16800001 0.58850002 15516013
0 0.16700001 0.5855 15975283
0.056500003 0.16900001 0.5855 6967869
0.061500002 0.16700001 0.58700001 6902334
0.065000005 0.16500001 0.588 6770750
-0.27100003 0.17300001 0.58900005 6852533
-0.2665 0.17300001 0.58900005 6851762
-0.26233336 0.17333335 0.58633333 6786483
-0.25700003 0.17275001 0.58650005 6983090
-0.25300002 0.171 0.58700001 7574710
-0.24900001 0.17 0.58500004 16511962
-0.0020000001 0.17300001 0.58700001 14922848
0.055000003 0.17200001 0.58600003 6837055
0.060000002 0.17 0.58900005 6770753
-0.29150003 0.178 0.58750004 8891854
-0.28733334 0.17766666 0.58700007 8168649
-0.28266668 0.17766668 0.58566672 7774406
-0.27750003 0.17600001 0.58700001 7183038
-0.27149999 0.17500001 0.58650005 6984377
-0.26700002 0.17500001 0.58600003 6852277
-0.0020000001 0.178 0.58700001 13541203
-0.30800003 0.18400002 0.58900005 12177129
-0.30233335 0.18266667 0.588 11520225
-0.29750001 0.18150002 0.58700001 10731484
-0.294 0.18100001 0.58600003 10074582
-0.0020000001 0.18300001 0.58700001 10713925
-0.30700001 0.18800001 0.58650005 11322850
-0.30200002 0.1855 0.5855 11848678
-0.28200001 -0.17200001 0.59400004 16644815
-0.27700001 -0.17250001 0.59250003 15198146
-0.27266666 -0.17266667 0.59233338 6447434
-0.26800001 -0.17300001 0.59400004 14473152
-0.264 -0.171 0.59400004 14999992
-0.28250003 -0.16750002 0.59250003 16579793
-0.27850002 -0.16700001 0.5905 16250310
-0.27266666 -0.16866668 0.59066671 12039062
-0.26775002 -0.16850001 0.59200001 10788486
-0.26249999 -0.16800001 0.59350002 14934194
-0.28400001 -0.16250001 0.59350002 16513480
-0.2782 -0.1622 0.59100002 16183491
-0.27250004 -0.16233335 0.59100002 15986368
-0.26750001 -0.16233335 0.59200001 15591352
-0.26233336 -0.16233335 0.59350008 15262898
-0.25800002 -0.16500001 0.59400004 14802861
-0.28100002 -0.15800001 0.59400004 16446399
-0.27800003 -0.15800001 0.59300005 16117693
-0.27350003 -0.1575 0.59300005 15920315
-0.26750001 -0.15700001 0.59350002 15854009
-0.26300001 -0.15700001 0.59400004 15788728
-0.31800002 -0.10700001 0.59100002 7696498
-0.31500003 -0.10200001 0.59100002 8816512
-0.31200001 -0.096000001 0.59200001 12235432
-0.30800003 -0.091000006 0.59200001 9143669
-0.30600002 -0.089000002 0.59400004 5194553
-0.30300003 -0.084000006 0.59150004 13085799
-0.29699999 -0.076000005 0.59200001 13609807
-0.29500002 -0.072000004 0.59000003 13411912
-0.29166669 -0.067333333 0.59266669 13214523
-0.289 -0.062000003 0.59200001 13872710
-0.28700003 -0.058333337 0.59200007 14267210
-0.28550002 -0.052500002 0.5905 14398026
-0.28400001 -0.053000003 0.59350002 14200903
-0.28500003 -0.049000002 0.59000003 14200897
-0.28200004 -0.047333334 0.59233338 14069316
-0.28166667 -0.043000001 0.59200001 14397765
-0.28 -0.041000001 0.59300005 14726476
-0.28500003 -0.036000002 0.59000003 14726736
-0.28175002 -0.037500001 0.59275001 14792271
-0.28625003 -0.032500003 0.59100002 14792013
-0.28233334 -0.033000004 0.59333342 14792015
-0.296 -0.026000001 0.59000003 15448917
-0.29200003 -0.027000001 0.59133339 15119952
-0.28725001 -0.0275 0.59300005 15120207
-0.28300002 -0.029000001 0.59400004 15054413
-0.31200001 -0.021000002 0.59100002 14530916
-0.30766669 -0.022 0.59100002 14727004
-0.3026 -0.022800002 0.59160006 15252056
-0.29666671 -0.022 0.59299999 15251541
-0.29300001 -0.024 0.59250003 15186003
-0.289 -0.024 0.59400004 15317331
-0.31633332 -0.018000001 0.59266669 11314326
-0.31300002 -0.019000001 0.59300005 14794614
-0.30849999 -0.019000001 0.59350002 14925419
-0.2615 -0.001 0.59400004 16571024
-0.25600001 -0.001 0.59400004 16437889
-0.26699999 0.0033333332 0.59366673 16572823
-0.2615 0.003 0.59350002 16570765
-0.25633335 0.0026666669 0.59333336 16503170
-0.25266668 0.0033333332 0.59366673 16305789
-0.2475 0.0040000002 0.59400004 16502913
-0.26750001 0.0080000004 0.59350002 16573590
-0.26133338 0.0076666675 0.59233338 16636555
-0.25766668 0.0083333338 0.59200001 16569991
-0.2525 0.0080000004 0.59250003 16635013
-0.2475 0.0080000004 0.59325004 16635012
-0.24266668 0.0083333338 0.59366673 16568963
-0.23800001 0.0090000005 0.59400004 16634498
-0.27266669 0.013333333 0.59366673 16575908
-0.2665 0.013 0.59200001 16639386
-0.26200002 0.013 0.59150004 16702864
-0.25749999 0.013 0.59125 16637072
-0.25225002 0.01275 0.59150004 16571023
-0.24800001 0.012500001 0.59150004 16570249
-0.24400002 0.012500001 0.59200001 16569477
-0.23750001 0.0125 0.5928334 16437375
-0.23250002 0.012500001 0.59350002 16371067
-0.22866668 0.013000001 0.59366673 16305789
-0.27800003 0.019000001 0.59400004 16576938
-0.27275002 0.018000001 0.59300005 16641444
-0.2665 0.018000001 0.59125 16639386
-0.2615 0.018000001 0.5905 16704151
-0.25750002 0.017500002 0.59000003 16638101
-0.25300002 0.017500002 0.59000003 16572308
-0.2485 0.016000001 0.59000003 16570764
-0.24350001 0.017500002 0.59025002 16635270
-0.23760001 0.017200002 0.59100002 16503426
-0.23266667 0.018000001 0.5916667 16503682
-0.22775002 0.017500002 0.59250003 16306303
-0.22333336 0.018000001 0.59366673 16437889
-0.28100002 0.024 0.59400004 16578485
-0.27700001 0.023000002 0.59250003 16642731
-0.27175 0.023000002 0.59125006 16640930
-0.26750001 0.023000002 0.5905 16639644
-0.26300001 0.022333333 0.59000003 16704666
-0.259 0.021000002 0.59000003 16638873
-0.23766668 0.022 0.59000003 16569735
-0.2325 0.022500001 0.5905 16701063
-0.22750002 0.022500001 0.59125 16635270
-0.22250001 0.022500001 0.59224999 16635269
-0.2175 0.022500001 0.59350008 16701321
-0.21400002 0.024 0.59400004 16306565
-0.28300002 0.028000001 0.59350002 16513469
-0.27824998 0.028000001 0.59200001 16511662
-0.27199998 0.027666667 0.5903334 16640673
-0.26700002 0.027000001 0.59000003 16705693
-0.23250002 0.026000001 0.59000003 16570249
-0.22666669 0.027000001 0.59000003 16504200
-0.222 0.0275 0.59075004 16503943
-0.21700001 0.0275 0.59175003 16635016
-0.21200001 0.027250001 0.59300005 16371587
-0.20700002 0.029000001 0.59400004 16240512
-0.28600001 0.033 0.59350002 16579779
-0.28250003 0.033 0.59150004 16514237
-0.27750003 0.033000004 0.59025002 16511407
-0.273 0.032000002 0.59000003 16772776
-0.22100002 0.031666666 0.59000003 16503943
-0.21800001 0.032000002 0.59000003 16372356
-0.21400002 0.032000002 0.59100002 16372356
-0.208 0.032000002 0.59283334 16174716
-0.20300001 0.032000002 0.59400004 16241022
-0.29200003 0.037 0.59400004 16514512
-0.28725001 0.037 0.59250003 16513991
-0.28200001 0.038000003 0.59000003 16513469
-0.27900001 0.037 0.59000003 16643767
-0.21800001 0.036000002 0.59000003 16437885
-0.21375 0.037 0.59025002 16372091
-0.20783335 0.037 0.5916667 16306300
-0.20200001 0.037 0.59350002 16108665
-0.19800001 0.038000003 0.59400004 16306045
-0.29200003 0.041000001 0.59300005 16580044
-0.287 0.042000003 0.59125 16644802
-0.21400002 0.041000001 0.59000003 16503164
-0.20750003 0.041999999 0.59050006 16305785
-0.20250002 0.042000003 0.59150004 16306043
-0.199 0.041999999 0.59300005 16239993
-0.19500001 0.042000003 0.59400004 16305787
-0.29200003 0.046000004 0.59300005 16579527
-0.287 0.047000006 0.59100002 16644289
-0.20566668 0.046000004 0.59000003 16240247
-0.20200001 0.046500001 0.5905 16371834
-0.199 0.046750002 0.59200001 16305785
-0.19400001 0.047000006 0.59375 16108406
-0.29300001 0.0515 0.59400004 16710085
-0.28766668 0.051333334 0.59133333 16709826
-0.20200001 0.0515 0.59000003 16371062
-0.19875 0.0515 0.59125006 16239730
-0.19320001 0.051800001 0.59320003 16108140
-0.28766668 0.05566667 0.59100002 16709569
-0.19850001 0.056500003 0.5905 16107884
-0.19250001 0.056500003 0.59250003 15910760
-0.18800001 0.056500003 0.59400004 15582049
-0.29300001 0.060000002 0.59400004 16773825
-0.289 0.061000004 0.59100002 16708540
-0.19700001 0.061000004 0.59000003 15976553
-0.19266666 0.061333332 0.59200007 15845222
-0.18800001 0.061500002 0.59350002 15582563
-0.185 0.061500002 0.59400004 15516770
-0.28800002 0.066 0.59000003 16774077
-0.19700001 0.065000005 0.59000003 16042347
-0.19250001 0.066 0.59133339 15910762
-0.18800001 0.066 0.59300005 15648102
-0.18433334 0.066333331 0.59400004 15385185
-0.19233334 0.071000002 0.59083337 15779178
-0.18800001 0.071000002 0.59250003 15516002
-0.184 0.071000002 0.59350002 15187291
-0.29000002 0.078000002 0.59200001 16773585
-0.28600001 0.078000002 0.59000003 16708550
-0.19050001 0.076500006 0.59025002 15713388
-0.18733335 0.077000007 0.59100002 15450984
-0.18420002 0.0766 0.59260005 15188321
-0.287 0.081500009 0.59200001 16641224
-0.28300002 0.083000004 0.59000003 16708291
-0.18700001 0.083000004 0.59000003 15582055
-0.18300001 0.081666678 0.59250003 15055705
-0.28500003 0.088000007 0.59300005 16774863
-0.28400001 0.085000001 0.59100002 16774605
-0.28 0.088000007 0.59000003 16643266
-0.18700001 0.088 0.59000003 15449947
-0.18300001 0.086666673 0.59266675 14989392
-0.28500003 0.091000006 0.59400004 16775132
-0.28100002 0.091499999 0.5905 16708041
-0.18800001 0.092000008 0.59000003 15252056
-0.183 0.09257143 0.59228569 14922831
-0.28100002 0.095000006 0.59100002 16574923
-0.18200001 0.097000003 0.59150004 15121246
-0.17900002 0.098333336 0.59233338 14793051
-0.27800003 0.1 0.59000003 16772304
-0.17566667 0.10233334 0.59066671 14136149
-0.17300001 0.104 0.59300005 13741389
-0.27600002 0.105 0.59000003 16574157
-0.273 0.108 0.59100002 16444874
-0.17200001 0.10650001 0.59250003 13347150
-0.17 0.109 0.59100002 12757852
-0.27100003 0.11100001 0.59300005 16709327
-0.26900002 0.11300001 0.59300005 16643786
-0.16700001 0.11250001 0.59200001 12559699
-0.266 0.115 0.59200001 16774342
-0.162 0.11700001 0.59200001 12164431
0.042000003 0.11850001 0.59300005 15455406
0.046750002 0.11700001 0.59224999 14930091
0.0515 0.11700001 0.59150004 14535588
0.056250002 0.11700001 0.59150004 14074523
0.061000004 0.11700001 0.59175003 13613972
0.065666668 0.11800001 0.59266669 12561801
-0.15800001 0.12100001 0.59100002 11835473
-0.155 0.123 0.59100002 11770451
0.034000002 0.12400001 0.59400004 16441268
0.037 0.12200001 0.59250009 16112304
0.042000003 0.12050001 0.5905 15652013
0.068000004 0.12200001 0.59100002 11508589
0.07 0.12100001 0.59300005 10457447
-0.25500003 0.12800001 0.59200001 16775372
-0.15200001 0.127 0.59200001 11507027
0.0275 0.12800001 0.59250003 15586215
0.032500003 0.127 0.59175003 16572336
0.036000002 0.125 0.59100002 16375215
0.069000006 0.127 0.59000003 11048033
0.072000004 0.1275 0.59300005 10128480
-0.14700001 0.132 0.59300005 10389840
0.018333334 0.13233334 0.59266669 16046250
0.023000002 0.13050002 0.59200001 15521196
0.026000001 0.13000001 0.59000003 15060652
0.072000004 0.132 0.59150004 10193242
0.075000003 0.134 0.59400004 9668187
-0.25 0.13800001 0.59200001 16710859
0.013 0.13750002 0.59150004 16571557
0.016000001 0.13550001 0.59150004 16637354
0.072000004 0.13700001 0.59000003 10389844
0.075000003 0.13750002 0.59350002 9602133
0.0070000002 0.14300001 0.59300005 16636315
0.010666667 0.14133334 0.5916667 16636573
0.072000004 0.1415 0.59000003 10192981
0.076250002 0.14274999 0.59300005 9338970
-0.104 0.149 0.59100002 4473960
0.003 0.148 0.59400004 16767383
0.0056666671 0.14633334 0.59233338 16702104
0.072000004 0.14650001 0.59000003 9404502
0.076000005 0.14725001 0.59200001 8680794
0.080000006 0.147 0.59400004 7494477
-0.097000003 0.15200001 0.59400004 4473703
0.0020000001 0.15166669 0.5916667 16635536
0.0050000004 0.15000001 0.59000003 16701843
0.072000004 0.15150002 0.59000003 8681047
0.075999998 0.15166669 0.5916667 7823953
-0.0020000001 0.15700001 0.59350002 16306307
0 0.156 0.59100002 16438149
0.072500005 0.15650001 0.5905 7100485
0.075000003 0.156 0.59200001 7363400
-0.252 0.164 0.59200001 16776146
-0.0050000004 0.163 0.59400004 15977334
-0.0020000001 0.16150001 0.59150004 16108668
-0.26249999 0.16800001 0.59400004 6917810
-0.25650001 0.16800001 0.59350002 7508657
-0.25100002 0.16600001 0.59000003 16775896
-0.0050000004 0.16700001 0.59250003 15582574
-0.0020000001 0.16500001 0.59000003 15911030
-0.29100001 0.17300001 0.59400004 7445954
-0.28650004 0.17300001 0.59400004 7116735
-0.28200001 0.17200001 0.59300005 6853563
-0.27825001 0.17300001 0.59150004 6919099
-0.27350003 0.17250001 0.59100002 6786998
-0.26800001 0.171 0.59200001 6720688
-0.2615 0.17 0.59100002 6982832
-0.257 0.17 0.59000003 7180210
-0.0060000001 0.17200001 0.59250003 15055201
-0.30600002 0.17900001 0.59200001 10731994
-0.30166671 0.17733334 0.59233338 9548753
-0.29700002 0.17733334 0.59066671 8891854
-0.29150003 0.17500001 0.59100002 7643077
-0.287 0.17500001 0.59100002 7379906
-0.28400001 0.17500001 0.59100002 7378878
-0.0060000005 0.17700002 0.59250003 14067280
-0.31300002 0.18300001 0.59300005 12242922
-0.30950001 0.18100001 0.59250003 11586017
-0.30500001 0.18200001 0.59000003 11520482
-0.0050000004 0.18150002 0.59100002 11896902
-0.31200001 0.185 0.59100002 12308458
-0.0060000001 0.1855 0.59200001 9793342
-0.27600002 -0.18100001 0.59900004 14869441
-0.28299999 -0.17750001 0.59850001 16316369
-0.27900001 -0.17650001 0.59600002 15790538
-0.27200001 -0.1785 0.59650004 13882805
-0.26700002 -0.17800002 0.59666663 13948339
-0.26200002 -0.177 0.59800005 13619626
-0.29000002 -0.171 0.59800005 16579807
-0.287 -0.17300001 0.59800005 16579542
-0.26500002 -0.17400001 0.59500003 14408115
-0.26125002 -0.17250001 0.59600002 14079913
-0.25666669 -0.17200001 0.59833336 13619621
-0.29300001 -0.16600001 0.59900004 16514793
-0.287 -0.169 0.59600002 16514522
-0.25749999 -0.16800001 0.59549999 14342566
-0.25400001 -0.16800001 0.59800005 13751456
-0.29250002 -0.16150001 0.59900004 16580331
-0.28800002 -0.16233334 0.59633332 16448725
-0.25700003 -0.16180001 0.59560001 15197104
-0.25266668 -0.16250001 0.5978334 14211232
-0.287 -0.15700001 0.59750003 16579276
-0.28299999 -0.1575 0.59549999 16446655
-0.27800003 -0.156 0.59500003 16051899
-0.26100001 -0.15700001 0.59500003 16183486
-0.25700003 -0.15700001 0.59549999 15920570
-0.25200003 -0.15700001 0.59750003 14802855
-0.24800001 -0.15700001 0.59900004 13816470
-0.30250001 -0.15150002 0.59900004 16513974
-0.29650003 -0.15125 0.59900004 16382128
-0.29200003 -0.15350001 0.59900004 16382654
-0.28725004 -0.15325001 0.59875005 16579516
-0.28250003 -0.15300001 0.59850001 16183730
-0.278 -0.15200001 0.59800005 16116402
-0.27214286 -0.15328573 0.59657145 15984822
-0.26675001 -0.15175 0.59675002 16249537
-0.2624 -0.15280001 0.59640002 16579529
-0.25725001 -0.15350001 0.59675002 15921081
-0.25233337 -0.15333335 0.59733337 15065769
-0.24866669 -0.15300001 0.59833336 14342044
-0.30650002 -0.14650001 0.59900004 16645562
-0.30200002 -0.14633334 0.59800005 16644786
-0.29700002 -0.147 0.59800005 16644530
-0.29233333 -0.14733334 0.59833336 16644271
-0.28850001 -0.148 0.59900004 16446377
-0.26200002 -0.147 0.59900004 16645330
-0.25760001 -0.14739999 0.59780008 16381634
-0.2525 -0.14750001 0.597 15920052
-0.24849999 -0.14750001 0.59750003 14868391
-0.245 -0.14750001 0.59900004 14210976
-0.30600002 -0.142 0.59900004 16710581
-0.30150002 -0.14300001 0.59800005 16644528
-0.29733336 -0.14233334 0.59800005 16643755
-0.292 -0.14250001 0.59800005 16511655
-0.28625003 -0.14250001 0.59875005 16510369
-0.25600001 -0.14300001 0.59850001 16579528
-0.25300002 -0.14250001 0.59800005 16249792
-0.24800001 -0.1425 0.59750003 15854518
-0.24333334 -0.14166667 0.59833336 14999466
-0.30600002 -0.14 0.59900004 16580027
-0.30200002 -0.13766669 0.59900004 16643241
-0.29733336 -0.13800001 0.59833336 16641958
-0.29150003 -0.13725001 0.59800005 16575135
-0.28600001 -0.13700001 0.59850001 16508313
-0.28200001 -0.1365 0.59900004 16377244
-0.25300002 -0.13900001 0.59900004 16514245
-0.2485 -0.13725001 0.59825003 16315326
-0.24250001 -0.13675001 0.59800005 15459503
-0.23766667 -0.13599999 0.59866667 14802604
-0.29750001 -0.134 0.59900004 14666892
-0.29150003 -0.132 0.59875 15257234
-0.287 -0.13150001 0.59900004 16573850
-0.28250003 -0.13150001 0.59900004 16573335
-0.27800003 -0.13150001 0.59900004 16505746
-0.24700001 -0.133 0.59900004 16250300
-0.24250001 -0.13175 0.59850001 16117432
-0.23675001 -0.13150001 0.59875005 15525039
-0.23300001 -0.13000001 0.59900004 14801828
-0.287 -0.12800001 0.59900004 16638618
-0.28250003 -0.1275 0.59900004 16506517
-0.27800003 -0.127 0.59900004 16308871
-0.23650001 -0.12800001 0.59900004 15524781
-0.287 -0.125 0.59900004 16768413
-0.28250003 -0.1235 0.59900004 16636558
-0.27800003 -0.125 0.59900004 16439690
-0.28250003 -0.1195 0.59900004 16701837
-0.317 -0.105 0.59600002 11051418
-0.31400001 -0.1 0.59600002 12038310
-0.31100002 -0.094000004 0.59600002 8023906
-0.30500001 -0.086000003 0.597 4994335
-0.30000001 -0.081 0.59500003 13544287
-0.29699999 -0.077000007 0.59800005 13280847
-0.294 -0.073000006 0.59500003 13148486
-0.29150003 -0.068499997 0.59650004 13477440
-0.289 -0.065000005 0.59800005 13741383
-0.28800002 -0.062000003 0.59600002 14070090
-0.28550002 -0.058500003 0.597 14004039
-0.28400001 -0.057000004 0.59900004 13872710
-0.28200004 -0.052666668 0.59733337 13805890
-0.28100002 -0.049000002 0.59500003 13740609
-0.27950001 -0.048 0.59750003 13937732
-0.278 -0.043000001 0.59724998 14661197
-0.278 -0.037750002 0.597 14660685
-0.27400002 -0.037 0.59900004 14792273
-0.28100002 -0.031000001 0.59500003 15054927
-0.278 -0.032499999 0.59725004 14857806
-0.27400002 -0.032500003 0.59900004 15120980
-0.28233334 -0.027000001 0.59566665 15383122
-0.278 -0.0275 0.59750003 15514709
-0.27400002 -0.0275 0.59900004 15909214
-0.29150003 -0.021000002 0.59500003 15251283
-0.28633335 -0.022 0.59600002 15645526
-0.28266665 -0.023000002 0.59666669 15580245
-0.278 -0.022500001 0.59800005 15579989
-0.27400002 -0.022500001 0.59900004 15777374
-0.3125 -0.016000001 0.59500003 14995100
-0.30700004 -0.016000001 0.59650004 15122547
-0.30250001 -0.017500002 0.59600002 15252839
-0.29733336 -0.018000001 0.59600002 15186268
-0.29200003 -0.017500002 0.597 15514717
-0.28675002 -0.017500002 0.59800005 15579994
-0.28250003 -0.017500002 0.59850001 15579993
-0.27824998 -0.017500002 0.59875 16172915
-0.31200001 -0.013 0.59600002 5786952
-0.3075 -0.0125 0.59775007 12164729
-0.30200002 -0.012500001 0.59850001 15517818
-0.29650003 -0.014 0.59900004 15844461
-0.29200003 -0.014 0.59900004 15645795
-0.289 -0.014 0.59900004 15776352
-0.27250004 -0.011000001 0.59900004 16572309
-0.2665 -0.011000001 0.59850001 16637332
-0.26166669 -0.013 0.59866673 16504460
-0.25733331 -0.012000001 0.59800005 16504200
-0.25225002 -0.012500001 0.59825003 16109182
-0.24700001 -0.011000001 0.59850001 15516527
-0.30900002 -0.0090000005 0.59800005 2299413
-0.27700001 -0.0075000003 0.59900004 16705183
-0.27225003 -0.0075000003 0.59800005 16703898
-0.26700002 -0.0075000003 0.59650004 16572055
-0.26275 -0.0072500007 0.59649998 16505490
-0.25725001 -0.0070000002 0.59650004 16438146
-0.25300002 -0.0070000002 0.59650004 16174458
-0.24900001 -0.0070000002 0.597 15911032
-0.24400002 -0.0070000002 0.59850001 15844983
-0.24000001 -0.0060000001 0.59900004 15647604
-0.278 -0.0022499999 0.59825003 16706213
-0.27199998 -0.0023333335 0.59633332 16573598
-0.26699999 -0.0016666668 0.59500003 16638106
-0.26249999 -0.003 0.59500003 16636561
-0.25650001 -0.003 0.59500003 16503682
-0.252 -0.0020000001 0.59500003 16108409
-0.24825001 -0.0019999999 0.59574997 15845240
-0.24325001 -0.0019999999 0.597 16108411
-0.23850001 -0.0020000001 0.59875005 16174462
-0.23400001 -0.001 0.59900004 16437121
-0.28600001 0.0040000002 0.59900004 16644019
-0.28300002 0.003 0.59900004 16643245
-0.27750003 0.0030000003 0.597 16575651
-0.27250001 0.003 0.59549999 16639902
-0.26900002 0.0020000001 0.59500003 16704413
-0.24800001 0.0020000001 0.59500003 16371327
-0.243 0.0030000003 0.59599996 16437121
-0.23775002 0.003 0.597 16437377
-0.23250002 0.003 0.59750003 16239741
-0.22750002 0.003 0.59850001 16174202
-0.22250001 0.0040000002 0.59900004 15976823
-0.28600001 0.0080000004 0.59900004 16578481
-0.28200001 0.0080000004 0.59800005 16643757
-0.27800003 0.0076666675 0.59666669 16576420
-0.27300003 0.0083333338 0.59500003 16509856
-0.24100001 0.0070000002 0.59500003 16503426
-0.23666668 0.0076666675 0.59533334 16306046
-0.23233335 0.0076666675 0.59566665 16239996
-0.22800002 0.0080000004 0.59600002 16108922
-0.22239999 0.0082 0.59759998 16042873
-0.21800001 0.0090000005 0.59900004 16109438
-0.28600001 0.013 0.59900004 16644535
-0.28200001 0.013 0.59750003 16643763
-0.27800003 0.013 0.59600002 16708524
-0.27500001 0.012 0.59500003 16510886
-0.22700001 0.011000001 0.59500003 16371581
-0.22233336 0.0125 0.59583336 16240510
-0.2175 0.012500001 0.59750003 16174974
-0.21433334 0.013000001 0.59866667 16174975
-0.20850001 0.014 0.59900004 16306305
-0.287 0.018000001 0.59825003 16579516
-0.28150001 0.018000001 0.59650004 16512946
-0.27800003 0.017000001 0.59500003 16642988
-0.22200002 0.016000001 0.59500003 16437889
-0.21799999 0.017500002 0.59525001 16371840
-0.21325001 0.017500002 0.597 16174975
-0.20760003 0.017200002 0.59820002 16174977
-0.20266668 0.018000001 0.59866667 16174977
-0.19800001 0.019000001 0.59900004 16372356
-0.29200003 0.022000002 0.59900004 16514505
-0.28800002 0.022000002 0.59800005 16580035
-0.28300002 0.022666669 0.59533334 16578999
-0.21233334 0.022 0.59533334 16174720
-0.20775001 0.022500001 0.59600002 16306564
-0.20275 0.022500001 0.597 16372357
-0.19800001 0.022500001 0.59775007 16372357
-0.19333334 0.023000002 0.59866667 16306823
-0.30100003 0.027000001 0.59900004 16711395
-0.29650003 0.026000001 0.59900004 16514774
-0.29200003 0.026333334 0.59766668 16579788
-0.28750002 0.026000001 0.59650004 16645315
-0.20750001 0.026000001 0.59500003 16240515
-0.20250002 0.027500002 0.59574997 16175233
-0.19750002 0.027249999 0.59650004 16175234
-0.1925 0.027500002 0.59775007 16306564
-0.18800001 0.028000003 0.59866667 16306821
-0.29650003 0.031000001 0.597 16515031
-0.29175001 0.031000003 0.59600002 16580047
-0.287 0.030000001 0.59500003 16711108
-0.20100001 0.032000002 0.59500003 15977851
-0.19725002 0.031999998 0.59575003 16175487
-0.19225001 0.032000002 0.59675002 16175232
-0.18725 0.032000002 0.59775007 16109439
-0.18300001 0.032333333 0.59900004 15846266
-0.296 0.035999998 0.59549999 16645847
-0.29300001 0.035 0.59500003 16580050
-0.19666667 0.036666669 0.59500003 16240253
-0.192 0.037 0.59625006 16437631
-0.18700001 0.037 0.597 16043129
-0.1825 0.037 0.59825003 15846007
