# .PCD v0.7 - Point Cloud Data file format
VERSION 0.7
FIELDS x y z rgb
SIZE 4 4 4 4
TYPE F F F U
COUNT 1 1 1 1
WIDTH 1146
HEIGHT 1
VIEWPOINT 0 0 0 1 0 0 0
POINTS 1146
DATA ascii
-0.38200003 -0.22200002 0.94200003 8677193
-0.37666669 -0.22400002 0.94166678 8545862
-0.37100002 -0.22500001 0.94200003 8610886
-0.36700001 -0.22500001 0.94200003 8479300
-0.36300001 -0.22500001 0.94300002 8414790
-0.35900003 -0.22500001 0.94300002 8414019
-0.35500002 -0.22500001 0.94400007 8676677
-0.69200003 -0.21800001 0.94100004 7570324
-0.68900001 -0.21800001 0.94400007 7504530
-0.40200001 -0.21900001 0.94100004 8742731
-0.39800003 -0.21900001 0.94300002 8939850
-0.39400002 -0.21800001 0.94300002 8874059
-0.38900003 -0.21800001 0.94400007 8939852
-0.69300002 -0.21300001 0.94200003 7767448
-0.40700001 -0.215 0.94400007 3809810
-0.69700003 -0.20700002 0.94050002 7701397
-0.69300002 -0.20700002 0.94350004 7701653
-0.69800001 -0.20100001 0.94300002 7635862
-0.70200002 -0.19600001 0.94100004 7701141
-0.69800001 -0.19600001 0.94400007 7635347
-0.70200002 -0.192 0.94200003 7701139
-0.70300001 -0.18700001 0.94300002 7635346
-0.70700002 -0.18300001 0.94100004 7701139
-0.70300001 -0.18300001 0.94400007 7766674
-0.70700002 -0.17900001 0.94200003 7701139
-0.70700002 -0.17400001 0.94300002 7635346
-0.71100003 -0.17 0.94000006 7569552
-0.70700002 -0.17 0.94300002 7700881
-0.71100003 -0.16300002 0.94150007 7570066
-0.71100003 -0.156 0.94200003 7766418
-0.71350002 -0.15200001 0.94200003 7569553
-0.71350002 -0.14750001 0.94200003 7569553
-0.71600002 -0.14300001 0.94200003 7503760
-0.71700001 -0.13700001 0.94350004 7569553
0.67750001 -0.13700001 0.94200003 7630940
-0.72100002 -0.132 0.94150007 7569553
0.65800005 -0.13100001 0.94300002 7104080
0.66300005 -0.132 0.94200003 7433045
0.66700006 -0.132 0.94000006 7432791
-0.72200006 -0.126 0.94400007 7635090
-0.041000001 -0.126 0.94300002 13880278
0.63600004 -0.126 0.94400007 7367252
0.64000005 -0.126 0.94300002 7235666
0.64500004 -0.126 0.94100004 7038287
0.65000004 -0.126 0.94000006 7170130
-0.72200006 -0.12100001 0.94400007 7700626
-0.056000002 -0.12200001 0.94400007 13748172
-0.052000001 -0.12200001 0.94100004 13880532
-0.049000002 -0.12200001 0.94000006 14011350
0.62400001 -0.12100001 0.94300002 7432791
0.62800002 -0.12100001 0.94100004 7564377
-0.071000002 -0.11800001 0.94300002 9140338
-0.067000002 -0.11800001 0.94100004 9206131
0.61600006 -0.116 0.94000006 7170133
-0.098000005 -0.11100001 0.94300002 8615021
-0.094000004 -0.11100001 0.94100004 8746606
-0.087000005 -0.115 0.94400007 9008751
-0.083000004 -0.11400001 0.94200003 9074545
-0.079000004 -0.11400001 0.94000006 9140338
0.60800004 -0.112 0.94400007 6774861
-0.11700001 -0.10700001 0.94400007 8154471
-0.11300001 -0.10700001 0.94300002 8286058
-0.109 -0.10700001 0.94100004 8088679
-0.105 -0.10700001 0.94000006 8351851
-0.13600001 -0.104 0.94400007 8088679
-0.132 -0.10300001 0.94200003 7826534
-0.12800001 -0.10300001 0.94100004 7958120
-0.12400001 -0.10300001 0.94000006 8286056
-0.048 -0.10300001 0.94000006 14011863
-0.043000001 -0.10300001 0.94100004 13946071
-0.153 -0.096000001 0.94200003 7167572
-0.147 -0.096000001 0.94000006 7891042
-0.14300001 -0.1 0.94200003 7956579
-0.13900001 -0.099000007 0.94000006 7890787
-0.109 -0.095000006 0.94000006 5586739
-0.103 -0.095000006 0.94050002 5652532
-0.097000003 -0.095000006 0.94100004 5718837
-0.094000004 -0.095000006 0.94200003 5850166
-0.088 -0.096000001 0.94300002 6178616
-0.083000004 -0.096000001 0.94400007 6310460
-0.077000007 -0.096000001 0.94400007 6310714
-0.071000002 -0.097500004 0.94200003 6441788
-0.067000002 -0.099000007 0.94100004 6573376
-0.064000003 -0.099000007 0.94100004 6704706
-0.058000002 -0.099000007 0.94200003 10061694
-0.052000001 -0.099000007 0.94300002 14011860
-0.049000002 -0.099000007 0.94400007 13814485
-0.037 -0.097000003 0.94350004 13814485
-0.16800001 -0.092000008 0.9425 6706509
-0.162 -0.092000008 0.94100004 8088932
-0.15900001 -0.092000008 0.94100004 6640714
-0.153 -0.092000008 0.94000006 6772554
-0.147 -0.092000008 0.94000006 6180931
-0.132 -0.092000008 0.94000006 5652273
-0.12800001 -0.092000008 0.94000006 5586480
-0.12400001 -0.092000008 0.94200003 5652273
-0.11850001 -0.092000008 0.9425 5455408
-0.11300001 -0.092000008 0.94300002 5455921
-0.109 -0.092000008 0.94400007 5586737
-0.105 -0.092000008 0.94400007 5718323
-0.037 -0.092000008 0.94300002 13946071
-0.186 -0.089000002 0.94400007 6772301
-0.18200001 -0.089000002 0.94300002 6772811
-0.178 -0.089000002 0.94200003 6772553
-0.17400001 -0.089000002 0.94200003 6377282
-0.16800001 -0.088500008 0.94150007 5653815
-0.162 -0.088000007 0.94100004 4732971
-0.15900001 -0.088000007 0.94200003 4601385
-0.153 -0.088000007 0.94200003 4601128
-0.147 -0.088000007 0.94200003 5193007
-0.14300001 -0.088000007 0.94200003 4995884
-0.13750002 -0.088000007 0.9425 5061676
-0.132 -0.088000007 0.94400007 5127470
-0.23850001 -0.082000002 0.94150007 8022886
-0.23300001 -0.082000002 0.94300002 8022886
-0.22900002 -0.082000002 0.94200003 8022884
-0.22300002 -0.082000002 0.94200003 7826020
-0.21700001 -0.081 0.94100004 7760227
-0.21350002 -0.083000004 0.94200003 7694689
-0.20700002 -0.082999997 0.94100004 7628381
-0.20100001 -0.083000004 0.94100004 6114883
-0.19700001 -0.083000004 0.94150007 6180158
-0.19175 -0.083000004 0.94250005 5522228
-0.186 -0.085000001 0.94200003 5719350
-0.18200001 -0.085000001 0.94300002 5456178
-0.178 -0.085000001 0.94300002 5061421
-0.17250001 -0.085000001 0.94400007 4732456
-0.22250001 -0.078000002 0.94000006 7167827
-0.21700001 -0.078000002 0.94100004 6443844
-0.21300001 -0.078000002 0.94200003 5916987
-0.20700002 -0.078000002 0.94300002 4864042
-0.20200001 -0.078000002 0.94400007 5127214
-0.22900002 -0.074000001 0.94100004 5850937
-0.22300002 -0.074000001 0.9425 5192748
-0.21700001 -0.074000001 0.94400007 4995366
-0.23600002 -0.066 0.94100004 5389615
-0.23300001 -0.07 0.94200003 5323565
-0.22900002 -0.07 0.94400007 5455151
-0.40500003 -0.057000004 0.94400007 14141584
-0.40000001 -0.057000004 0.94100004 14601350
-0.40500003 -0.053000003 0.94300002 14207117
-0.40500003 -0.049000002 0.94400007 14272655
-0.40000001 -0.041000001 0.94200003 14732167
-0.056000002 0.017000001 0.94000006 3619920
-0.060000002 0.021000002 0.94200003 3290439
-0.067000002 0.029000001 0.94400007 3158850
-0.063000001 0.025 0.94200003 3158852
-0.075000003 0.032000002 0.94400007 7758936
-0.071000002 0.032000002 0.94200003 5392971
-0.067000002 0.032000002 0.94000006 3619406
-0.086000003 0.036000002 0.94400007 7823448
-0.082000002 0.036000002 0.94300002 7692630
-0.078000002 0.036000002 0.94200003 7692634
-0.074000001 0.036000002 0.94000006 7561559
-0.118 0.044000003 0.94400007 7430232
-0.112 0.044000003 0.94200003 7297876
-0.109 0.044000003 0.94200003 7627352
-0.103 0.042000003 0.94175005 7100752
-0.097000003 0.040000003 0.94200003 7297874
-0.094000004 0.040000003 0.94200003 7561046
-0.088 0.040000003 0.94050002 7495253
-0.13700001 0.048 0.94350004 7562076
-0.13100001 0.048 0.94200003 7167575
-0.12800001 0.047000002 0.94100004 7430747
-0.12400001 0.047000002 0.94000006 7957091
-0.15100001 0.052000001 0.94400007 7825505
-0.147 0.051000003 0.94200003 7034961
-0.14300001 0.051000003 0.94100004 7693405
-0.13900001 0.051000003 0.94000006 6969682
-0.19800001 0.059000004 0.94400007 7297876
-0.193 0.059000004 0.94300002 7298133
-0.18900001 0.059000004 0.94200003 7101267
-0.183 0.059000004 0.94150007 7101525
-0.177 0.059000004 0.94000006 7693148
-0.17400001 0.055000003 0.94400007 7364439
-0.16800001 0.055000003 0.94300002 7693918
-0.162 0.055000003 0.94200003 7298646
-0.15800001 0.055000003 0.94200003 7561818
-0.15400001 0.055000003 0.94100004 7561819
-0.32200003 0.061000004 0.94100004 8151112
-0.23300001 0.064000003 0.94400007 8483434
-0.22900002 0.064000003 0.94300002 7760224
-0.22300002 0.063000001 0.94200003 7496282
-0.21700001 0.063000001 0.94200003 7890527
-0.21300001 0.063000001 0.94100004 8219489
-0.20700002 0.063000001 0.94050002 7561819
-0.2015 0.061500002 0.94200003 7167060
-0.32300001 0.069000006 0.94400007 8414287
-0.257 0.068000004 0.94400007 8284767
-0.25300002 0.068000004 0.94400007 7034957
-0.24900001 0.068000004 0.94300002 8153442
-0.245 0.067000002 0.94200003 8219746
-0.23800001 0.067000002 0.94050002 7627869
-0.23200001 0.067000002 0.94000006 8220265
-0.32300001 0.073000006 0.94300002 7952968
-0.27400002 0.072000004 0.94400007 6771528
-0.26700002 0.072000004 0.9425 8021080
-0.26100001 0.071000002 0.94100004 7626323
-0.257 0.071000002 0.94100004 8086361
-0.252 0.071000002 0.94000006 8152670
-0.32200003 0.076000005 0.94100004 7756103
-0.31900001 0.076000005 0.94400007 7756104
-0.30700001 0.076000005 0.94400007 8216915
-0.30200002 0.076000005 0.94400007 7427399
-0.29800001 0.076000005 0.94300002 8349014
-0.292 0.076000005 0.94300002 8282965
-0.28500003 0.076000005 0.94200003 8085844
-0.28100002 0.076000005 0.94200003 7560013
-0.27700001 0.075000003 0.94000006 7889235
-0.31800002 0.080000006 0.94100004 8085328
-0.31400001 0.080000006 0.94200003 8282708
-0.31 0.080000006 0.94100004 7756365
-0.30300003 0.080000006 0.94000006 7625036
-0.17300001 -0.49300003 0.94800007 9604489
-0.16800001 -0.49100003 0.94600004 8815489
-0.16500001 -0.49200001 0.94800007 7566458
-0.185 -0.48700002 0.94600004 9866631
-0.156 -0.48700002 0.94900006 5921633
-0.21900001 -0.48200002 0.94900006 12437724
-0.20200001 -0.48500001 0.94800007 13031142
-0.19800001 -0.48400003 0.94700003 8619145
-0.193 -0.48300001 0.94500005 10590358
-0.23200001 -0.47800002 0.94900006 11911638
-0.22700001 -0.47600001 0.94600004 11714001
-0.21400002 -0.48000002 0.94700003 12174552
-0.21000001 -0.47900003 0.94500005 12437722
-0.257 -0.47000003 0.94900006 12240857
-0.24400002 -0.47400004 0.94800007 12109018
-0.23900001 -0.47200003 0.94600004 11845844
-0.264 -0.46500003 0.94600004 14147570
-0.252 -0.46800002 0.94600004 12503521
-0.31300002 -0.46100003 0.94800007 9471874
-0.296 -0.46400002 0.94900006 7497830
-0.29100001 -0.46400002 0.94900006 7826795
-0.28200001 -0.46300003 0.94900006 7498343
-0.27800003 -0.46300003 0.94900006 7170151
-0.273 -0.46100003 0.94600004 13159129
-0.34900001 -0.46000001 0.94800007 6578268
-0.34300002 -0.45800003 0.94600004 7893355
-0.33900002 -0.45800003 0.94700003 8748149
-0.33400002 -0.45800003 0.94700003 8486007
-0.33000001 -0.45700002 0.94700003 8945530
-0.32500002 -0.45600003 0.94500005 9538179
-0.30800003 -0.45900002 0.94600004 8287345
-0.303 -0.45800003 0.94500005 9471877
-0.59500003 -0.42800003 0.94700003 3489878
-0.59500003 -0.42400002 0.94800007 3359317
-0.59766668 -0.41766667 0.9476667 5135724
-0.60400003 -0.41000003 0.94800007 6253434
-0.13500001 -0.38200003 0.94850004 5460559
-0.13900001 -0.37100002 0.94600004 5918790
-0.13900001 -0.36700001 0.94800007 6510410
-0.62900001 -0.36100003 0.94800007 7833756
-0.24400002 -0.36200002 0.94500005 6049606
-0.15200001 -0.36200002 0.94500005 5126699
-0.14600001 -0.36200002 0.94600004 7494731
-0.142 -0.36200002 0.94600004 8745571
-0.13900001 -0.36300001 0.94900006 6576204
-0.62900001 -0.35600001 0.94900006 7768220
-0.245 -0.35900003 0.94700003 7494733
-0.17400001 -0.35900003 0.94500005 8415057
-0.16800001 -0.35800001 0.94500005 8414801
-0.162 -0.35800001 0.94600004 8349009
-0.15800001 -0.35800001 0.94600004 8217426
-0.1525 -0.3585 0.94750005 5850422
-0.147 -0.35900003 0.94800007 8350295
-0.14300001 -0.35900003 0.94900006 3810075
-0.634 -0.35200003 0.94800007 7899293
-0.252 -0.35000002 0.94600004 8744538
-0.24850002 -0.35250002 0.94650006 8612696
-0.245 -0.35300002 0.94850004 8875096
-0.23775001 -0.35175002 0.94675004 8809304
-0.2315 -0.35150003 0.94650006 8677716
-0.22700001 -0.35300002 0.94500005 8677716
-0.223 -0.35200003 0.94500005 8743509
-0.21900001 -0.35200003 0.94500005 8940888
-0.213 -0.35200003 0.94600004 8611924
-0.20700002 -0.35200003 0.94700003 8678229
-0.20300001 -0.35200003 0.94700003 8743509
-0.19900002 -0.35350001 0.94600004 8611924
-0.19275001 -0.35350001 0.94675004 8611924
-0.18700001 -0.35350001 0.94750005 8546131
-0.1825 -0.35350001 0.94750005 8545874
-0.17900001 -0.35500002 0.94700003 8480336
-0.17250001 -0.35500002 0.94750005 8348750
-0.16700001 -0.35500002 0.94800007 8282700
-0.163 -0.35500002 0.94900006 8611922
-0.15900001 -0.35500002 0.94900006 8414802
-0.63700002 -0.347 0.94600004 7899549
-0.634 -0.347 0.94900006 7767963
-0.28100002 -0.347 0.94500005 8875347
-0.27700001 -0.347 0.94500005 8612949
-0.273 -0.347 0.94500005 2892829
-0.26700002 -0.347 0.94600004 1907735
-0.26100001 -0.347 0.94700003 1906972
-0.25600001 -0.34600002 0.94700003 2233614
-0.25300002 -0.347 0.94900006 8941147
-0.22700001 -0.34900001 0.94700003 8743509
-0.22400001 -0.34900001 0.94800007 8875095
-0.21900001 -0.34900001 0.94800007 8612179
-0.213 -0.34900001 0.94850004 8612179
-0.20700002 -0.34900001 0.94900006 8743252
-0.63700002 -0.34300002 0.94700003 7702427
-0.32900003 -0.34300002 0.94800007 9139033
-0.324 -0.34200001 0.94600004 9336151
-0.31700003 -0.34100002 0.94550002 2497297
-0.31100002 -0.34100002 0.94600004 3747881
-0.30700001 -0.34100002 0.94600004 4669238
-0.29800001 -0.34250003 0.94600004 5522744
-0.294 -0.34400001 0.94500005 9073240
-0.28750002 -0.34400001 0.94550002 7956306
-0.28200001 -0.34400001 0.94700003 2300948
-0.27700001 -0.34300002 0.94700003 2038550
-0.273 -0.34300002 0.94800007 2169111
-0.26700002 -0.34350002 0.94900006 1840918
-0.64200002 -0.33800003 0.94600004 7833754
-0.63800001 -0.33900002 0.94900006 7833756
-0.32250002 -0.33850002 0.94850004 5719087
-0.31600001 -0.33800003 0.94800007 2104088
-0.31100002 -0.33700001 0.94800007 2104089
-0.30700001 -0.33700001 0.94900006 1775897
-0.30250001 -0.33850002 0.94750005 2959394
-0.292 -0.34 0.94700003 1710104
-0.28600001 -0.34 0.94800007 2104346
-0.28200001 -0.34 0.94900006 1972759
-0.64200002 -0.33400002 0.94700003 7767961
-0.64500004 -0.32900003 0.94500005 7833754
-0.64200002 -0.32900003 0.94800007 7702170
-0.051000003 -0.32600001 0.94700003 10719880
-0.047000002 -0.33000001 0.94800007 14274769
-0.043000001 -0.32900003 0.94500005 14013660
-0.035 -0.33000001 0.94600004 14276835
-0.64550006 -0.32250002 0.94700003 7899036
-0.64200002 -0.32500002 0.94900006 7833243
-0.054000001 -0.32100001 0.94600004 10786179
-0.64700007 -0.31550002 0.94650006 7833498
-0.062000003 -0.31800002 0.94700003 10653820
-0.64700007 -0.31100002 0.94750005 7767963
-0.074000001 -0.31400001 0.94900006 10456442
-0.07 -0.31300002 0.94500005 10653821
-0.65400004 -0.30700001 0.94500005 7767961
-0.65000004 -0.30700001 0.94800007 7702168
-0.093000002 -0.30600002 0.94700003 10389620
-0.082000002 -0.30900002 0.94600004 10916220
-0.65400004 -0.30200002 0.94600004 7767963
-0.65000004 -0.30200002 0.94900006 7767450
-0.105 -0.30200002 0.94700003 10718590
-0.65400004 -0.29800001 0.94700003 7899036
-0.12100001 -0.29900002 0.94900006 10784383
-0.116 -0.29700002 0.94500005 10653820
-0.65800005 -0.29300001 0.94600004 7701657
-0.148 -0.29100001 0.94900006 10850429
-0.14400001 -0.29000002 0.94700003 11046777
-0.12800001 -0.29300001 0.94500005 10982014
-0.66300005 -0.28500003 0.94600004 7767450
-0.65800005 -0.287 0.94750005 7701913
-0.16000001 -0.287 0.94700003 11178881
-0.17600001 -0.28400001 0.94900006 10850172
-0.17200001 -0.28300002 0.94600004 10192497
-0.033333335 -0.28233334 0.94633341 13881819
-0.66700006 -0.278 0.94500005 7701911
-0.66300005 -0.278 0.94750005 7635863
-0.208 -0.27700001 0.94900006 11048324
-0.20300001 -0.27600002 0.94600004 10982531
-0.18800001 -0.27900001 0.94700003 11047295
-0.18300001 -0.27900001 0.94500005 11047295
-0.062000003 -0.27600002 0.94600004 7295024
-0.058000002 -0.27600002 0.94700003 7228465
-0.054000001 -0.27600002 0.94800007 13354699
-0.048 -0.27850002 0.94750005 13289679
-0.042000003 -0.28 0.94700003 14277089
-0.038000003 -0.28 0.94800007 14079451
-0.031000001 -0.28 0.94800007 13750488
-0.66700006 -0.27100003 0.94600004 7833241
-0.66200006 -0.27100003 0.94800007 7701398
-0.22400001 -0.273 0.94900006 11047549
-0.21900001 -0.27200001 0.94600004 11113341
-0.083000004 -0.27200001 0.94500005 8679520
-0.077000007 -0.27200001 0.94600004 8085835
-0.073000006 -0.27200001 0.94700003 7229748
-0.067500003 -0.27200001 0.94800007 7229487
-0.062000003 -0.273 0.94900006 7426097
-0.66700006 -0.26700002 0.94700003 7832727
-0.257 -0.266 0.94900006 11179134
-0.252 -0.26500002 0.94600004 11047547
-0.23800001 -0.26900002 0.94700003 11047549
-0.108 -0.26500002 0.94700003 11579316
-0.10250001 -0.26500002 0.94850004 11118765
-0.098000005 -0.26800001 0.94550002 10262167
-0.093000002 -0.26800001 0.94700003 9932175
-0.089000002 -0.26900002 0.94800007 9799812
-0.083000004 -0.26900002 0.94900006 9075310
-0.671 -0.26200002 0.94500005 7898520
-0.66700006 -0.26200002 0.94800007 7832727
-0.29000002 -0.26000002 0.94900006 11376512
-0.273 -0.26300001 0.94900006 11310721
-0.26800001 -0.26200002 0.94600004 11244928
-0.13700001 -0.26100001 0.94500005 11447218
-0.13100001 -0.26100001 0.94600004 11381425
-0.127 -0.26100001 0.94600004 11184558
-0.12400001 -0.26100001 0.94700003 11447730
-0.11733333 -0.26199999 0.94700003 10724007
-0.112 -0.26249999 0.94750005 11447731
-0.67200005 -0.25800002 0.94700003 7635346
-0.66700006 -0.25800002 0.94900006 7767445
-0.31100002 -0.257 0.94900006 11442305
-0.30600002 -0.25600001 0.94700003 11442305
-0.30100003 -0.25500003 0.94600004 11179133
-0.28500003 -0.259 0.94700003 11442561
-0.17500001 -0.25500003 0.94800007 8151366
-0.171 -0.25500003 0.94900006 8151366
-0.16700001 -0.25800002 0.94500005 8679527
-0.163 -0.25800002 0.94600004 9537159
-0.15900001 -0.25800002 0.94700003 9605009
-0.153 -0.25800002 0.94800007 10921641
-0.147 -0.25800002 0.94800007 11513266
-0.14400001 -0.25800002 0.94900006 10987180
-0.13800001 -0.25800002 0.94900006 11447474
-0.67600006 -0.25300002 0.94500005 7767185
-0.67200005 -0.25400001 0.94800007 7570323
-0.32700002 -0.25300002 0.94800007 11442818
-0.32200003 -0.252 0.94600004 11311745
-0.19250001 -0.25100002 0.94650006 8150849
-0.18700001 -0.25100002 0.94900006 8150849
-0.18200001 -0.25400001 0.94500005 8150594
-0.17900001 -0.25400001 0.94600004 8216387
-0.67600006 -0.24900001 0.94600004 7701139
-0.37100002 -0.24800001 0.94900006 11377543
-0.36600003 -0.24700001 0.94700003 11442566
-0.36100003 -0.24600001 0.94600004 11310980
-0.34900001 -0.25 0.94800007 11442563
-0.34400001 -0.24900001 0.94600004 11508870
-0.33900002 -0.24900001 0.94500005 11442819
-0.22200002 -0.24700001 0.94500005 8347715
-0.21800001 -0.24700001 0.94600004 8479301
-0.213 -0.24800001 0.94750005 8347713
-0.20700002 -0.24800001 0.94900006 8413506
-0.19800001 -0.25 0.94500005 8216642
-0.67800003 -0.24366666 0.9476667 7701139
-0.40200001 -0.245 0.94800007 8746600
-0.39700001 -0.245 0.94700003 9273196
-0.39200002 -0.24400002 0.94700003 10391162
-0.38800001 -0.24400002 0.94700003 8877920
-0.38300002 -0.24400002 0.94600004 11574408
-0.26700002 -0.24100001 0.94500005 8610885
-0.26300001 -0.24100001 0.94600004 8479300
-0.25700003 -0.24100001 0.94750005 8479556
-0.25100002 -0.24100001 0.94900006 8545094
-0.24300002 -0.24400002 0.94600004 8479301
-0.23700002 -0.24400002 0.94700003 8545092
-0.23100001 -0.24400002 0.94800007 8610887
-0.22700001 -0.24400002 0.94900006 8413506
-0.68100005 -0.23800001 0.94650006 7636116
-0.30000001 -0.23500001 0.94600004 8545092
-0.296 -0.23500001 0.94700003 8479299
-0.29300001 -0.23500001 0.94900006 8479553
-0.287 -0.23800001 0.94500005 8479810
-0.28400001 -0.23800001 0.94600004 8479553
-0.278 -0.23800001 0.94750005 8479553
-0.27200001 -0.23800001 0.94900006 8676932
-0.68500006 -0.23200001 0.94500005 7438994
-0.68100005 -0.23200001 0.94800007 7504787
-0.32100001 -0.23100001 0.94500005 8545092
-0.317 -0.23100001 0.94600004 8347713
-0.31300002 -0.23100001 0.94700003 8545092
-0.30900002 -0.23200001 0.94800007 8545092
-0.30500001 -0.23200001 0.94900006 8545092
-0.68500006 -0.22700001 0.94600004 7570323
-0.68100005 -0.22700001 0.94900006 7504530
-0.33800003 -0.22800002 0.94500005 8479298
-0.33400002 -0.22800002 0.94600004 8479553
-0.32800001 -0.22800002 0.94750005 8479299
-0.32200003 -0.22800002 0.94900006 8413506
-0.68500006 -0.223 0.94600004 7832725
-0.37200001 -0.22200002 0.94500005 8611400
-0.36800003 -0.22200002 0.94600004 8545607
-0.36400002 -0.22200002 0.94700003 8611398
-0.35800001 -0.22200002 0.94800007 8611140
-0.35100001 -0.22500001 0.94500005 8676418
-0.347 -0.22500001 0.94700003 8413760
-0.34300002 -0.22500001 0.94800007 8479553
-0.33900002 -0.22500001 0.94900006 8479553
-0.68500006 -0.21800001 0.94700003 7766932
-0.40400001 -0.21600001 0.94600004 9071188
-0.38500002 -0.21800001 0.94500005 8808266
-0.38100001 -0.21800001 0.94600004 8742473
-0.377 -0.21800001 0.94700003 8610887
-0.37300003 -0.21800001 0.94800007 8610887
-0.68700004 -0.21400002 0.94650006 7635347
-0.39900002 -0.215 0.94700003 9071438
-0.39300001 -0.215 0.94800007 8874059
-0.38700002 -0.215 0.94900006 8742473
-0.69000006 -0.20500001 0.94800007 7636116
-0.68700004 -0.20950001 0.94750005 7701139
-0.69200003 -0.20100001 0.94750005 7636116
-0.69400001 -0.19600001 0.94700003 7701139
-0.69650006 -0.192 0.94650006 7569553
-0.69700003 -0.18800001 0.94750005 7569554
-0.38900003 -0.186 0.94800007 7496015
-0.69900006 -0.18300001 0.94700003 7569553
-0.70300001 -0.17900001 0.94500005 7635346
-0.69900006 -0.17900001 0.94800007 7701139
-0.70200002 -0.17400001 0.94750005 7635346
-0.70400006 -0.16800001 0.94750005 7700882
-0.708 -0.16300002 0.94550002 7569553
-0.70900005 -0.15700001 0.94700003 7635346
-0.70900005 -0.15200001 0.94800007 7635345
-0.71000004 -0.148 0.94900006 7635346
-0.71200001 -0.14300001 0.94500005 7701138
0.68150002 -0.142 0.94750005 7630684
-0.71350002 -0.13700001 0.94700003 7569553
0.66100001 -0.13700001 0.94800007 7301719
0.66600001 -0.13700001 0.94700003 7433304
0.671 -0.13700001 0.94500005 7367255
-0.71700001 -0.13000001 0.94500005 7635345
-0.71400005 -0.13000001 0.94900006 7569552
0.63900006 -0.13100001 0.94900006 7169873
0.64300001 -0.13100001 0.94700003 7170130
0.648 -0.13100001 0.94600004 7433302
0.65300006 -0.13100001 0.94500005 7498838
-0.71900004 -0.126 0.94700003 7503760
-0.049000002 -0.127 0.94900006 13946071
-0.045000002 -0.126 0.94700003 13946071
0.62700003 -0.126 0.94800007 7301459
0.63100004 -0.126 0.94600004 7038287
-0.71900004 -0.12200001 0.94800007 7437709
-0.064000003 -0.123 0.94800007 9403765
-0.060000002 -0.12200001 0.94600004 9207419
0.62 -0.12100001 0.94600004 6972754
-0.72300005 -0.11700001 0.94600004 7635087
-0.72000003 -0.11700001 0.94900006 7371916
-0.077000007 -0.119 0.94750005 9206131
0.61400002 -0.11700001 0.94500005 7432792
-0.72400004 -0.11300001 0.94700003 7569295
-0.11000001 -0.112 0.94900006 8285542
-0.10600001 -0.11100001 0.94700003 8548714
-0.10200001 -0.11100001 0.94500005 8483435
-0.095000006 -0.115 0.94900006 8942958
-0.091000006 -0.115 0.94600004 8942958
-0.72400004 -0.108 0.94800007 7635346
-0.12900001 -0.108 0.94900006 8416872
-0.123 -0.1075 0.94600004 8285541
-0.14 -0.104 0.94600004 8022886
-0.16800001 -0.097000003 0.94900006 6772557
-0.163 -0.097000003 0.94600004 7431259
-0.15900001 -0.096000001 0.94500005 6838863
-0.15200001 -0.1 0.94800007 7891553
-0.148 -0.1 0.94500005 7956323
-0.068000004 -0.096000001 0.94500005 6442042
-0.064000003 -0.096000001 0.94600004 6441787
-0.058000002 -0.096000001 0.94700003 9864055
-0.053000003 -0.096000001 0.94800007 14143189
-0.049000002 -0.096000001 0.94800007 13814485
-0.043000005 -0.097500011 0.94625008 13946071
-0.18300001 -0.093000002 0.94900006 6772300
-0.17700002 -0.093000002 0.94600004 6969679
-0.10200001 -0.092000008 0.94500005 5849652
-0.098000005 -0.092000008 0.94600004 5849397
-0.092500001 -0.092000008 0.94750005 5981496
-0.087000005 -0.092000008 0.94800007 6047288
-0.083000004 -0.092000008 0.94900006 6178617
-0.079000004 -0.092000008 0.94900006 6178617
-0.072000004 -0.092000008 0.94900006 6310201
-0.043000001 -0.092000008 0.94800007 14011864
-0.22700001 -0.086000003 0.94900006 8022884
-0.22200002 -0.086000003 0.94700003 8023397
-0.21800001 -0.086000003 0.94600004 7891555
-0.21100001 -0.090000004 0.94900006 7891811
-0.20600002 -0.089000002 0.94700003 7957603
-0.20200001 -0.089000002 0.94600004 6510157
-0.19800001 -0.089000002 0.94600004 7167059
-0.192 -0.089000002 0.94500005 6772301
-0.12800001 -0.088000007 0.94500005 5193007
-0.123 -0.088500008 0.94650006 5258543
-0.11700001 -0.089000002 0.94800007 5455408
-0.11150001 -0.089000002 0.94850004 5521714
-0.041000001 -0.088000007 0.94700003 14011864
-0.186 -0.081 0.94500005 4732199
-0.18300001 -0.081 0.94600004 4600613
-0.17700002 -0.081500001 0.94750005 4402979
-0.171 -0.082000002 0.94900006 4666152
-0.16700001 -0.085000001 0.94500005 4995630
-0.163 -0.085000001 0.94600004 5258544
-0.1575 -0.085000001 0.94650006 4535078
-0.15200001 -0.085000001 0.94700003 4732456
-0.148 -0.085000001 0.94700003 5061163
-0.14400001 -0.085000001 0.94700003 5061676
-0.13850001 -0.085000001 0.94850004 4995883
-0.19800001 -0.078000002 0.94600004 4929322
-0.19250001 -0.078000002 0.94800007 4798249
-0.21900001 -0.071000002 0.94900006 5389612
-0.21400002 -0.074000001 0.94500005 5455921
-0.208 -0.074000001 0.94650006 5258541
-0.20300001 -0.074000001 0.94900006 4929575
-0.23400001 -0.067000002 0.94600004 5324335
-0.22800002 -0.068499997 0.94800007 5389358
-0.22200002 -0.07 0.94800007 5389612
-0.40700001 -0.061000004 0.94900006 14338702
-0.23800001 -0.063000001 0.94600004 5520944
-0.056000002 0.012 0.94550002 3554129
-0.060000002 0.017000001 0.94700003 3422794
-0.064000003 0.021000002 0.94800007 3093570
-0.077000007 0.029000001 0.94850004 7890010
-0.071000002 0.029000001 0.94600004 4406852
-0.068000004 0.025 0.94800007 3027521
-0.094000004 0.033 0.94900006 7561302
-0.088 0.033 0.94800007 7692890
-0.083000004 0.033 0.94700003 7955802
-0.079000004 0.032000002 0.94600004 7692892
-0.10600001 0.036000002 0.94900006 7034703
-0.10200001 0.036000002 0.94700003 7692633
-0.098000005 0.036000002 0.94600004 7429973
-0.094000004 0.036000002 0.94500005 7561303
-0.090000004 0.036000002 0.94500005 7561046
-0.13800001 0.044000003 0.94850004 7429976
-0.132 0.044000003 0.94700003 7562845
-0.12800001 0.044000003 0.94600004 7760225
-0.12333333 0.041333336 0.9476667 7496538
-0.11700001 0.040000003 0.94800007 7101009
-0.11300001 0.040000003 0.94700003 7561046
-0.109 0.040000003 0.94600004 7561046
-0.156 0.048 0.94900006 8088162
-0.15200001 0.048 0.94800007 6772302
-0.148 0.048 0.94700003 6969425
-0.14400001 0.048 0.94600004 7035474
-0.17700002 0.052000001 0.94850004 7429975
-0.171 0.052000001 0.94800007 7167573
-0.16700001 0.052000001 0.94700003 7101266
-0.163 0.052000001 0.94700003 7035474
-0.15900001 0.052000001 0.94600004 7101523
-0.155 0.052000001 0.94500005 6969682
-0.19900002 0.056000002 0.94900006 7364440
-0.19300002 0.056000002 0.94850004 7495769
-0.186 0.056000002 0.94700003 7824990
-0.18200001 0.056000002 0.94500005 7035474
-0.178 0.056000002 0.94500005 7429719
-0.259 0.064000003 0.94900006 7495251
-0.25400001 0.064000003 0.94800007 8153695
-0.248 0.064000003 0.94700003 7694172
-0.24200001 0.064000003 0.94600004 8089187
-0.23700002 0.064000003 0.94500005 8286053
-0.23400001 0.060000002 0.94900006 7824474
-0.22800002 0.060000002 0.94750005 8087133
-0.22200002 0.060000002 0.94700003 8021340
-0.21800001 0.060000002 0.94600004 7692889
-0.21400002 0.060000002 0.94600004 7429718
-0.208 0.060000002 0.94500005 7693404
-0.32200003 0.067000002 0.94700003 8413775
-0.27900001 0.068000004 0.94900006 7099719
-0.27250001 0.068000004 0.94750005 8086358
-0.266 0.068000004 0.94600004 8151382
-0.26200002 0.068000004 0.94500005 7560272
-0.32000002 0.073000006 0.94600004 8216656
-0.31600001 0.073000006 0.94800007 8151120
-0.31200001 0.073000006 0.94800007 8282962
-0.30800003 0.073000006 0.94800007 7625031
-0.30400002 0.073000006 0.94800007 8282708
-0.29700002 0.072500005 0.94800007 8282964
-0.29100001 0.072000004 0.94700003 8216915
-0.28600001 0.072000004 0.94600004 7691342
-0.28200001 0.072000004 0.94600004 7889235
-0.27800003 0.072000004 0.94500005 7823700
-0.31500003 0.076000005 0.94500005 8085584
-0.31100002 0.076000005 0.94500005 8150865
-0.19500001 -0.49200001 0.95300007 7892327
-0.178 -0.49400002 0.95000005 8090476
-0.16100001 -0.49400002 0.95200002 5724002
-0.21600001 -0.48900002 0.95400006 12963298
-0.21200001 -0.48700002 0.95200002 12371931
-0.20700002 -0.48600003 0.95000005 12042966
-0.19000001 -0.49000001 0.95100003 8156012
-0.34800002 -0.48200002 0.95400006 7104608
-0.24100001 -0.48100004 0.95300007 12173530
-0.22900002 -0.48400003 0.95300007 12502747
-0.22400001 -0.48300001 0.95100003 12700124
-0.259 -0.47800002 0.95400006 12700898
-0.25400001 -0.47600001 0.95200002 11648466
-0.24900001 -0.47500002 0.95000005 11715029
-0.23600002 -0.47900003 0.95100003 11977174
-0.35100001 -0.47100002 0.95200002 8025716
-0.26700002 -0.47400004 0.95400006 13094114
-0.26200002 -0.47200003 0.95100003 12898275
-0.34600002 -0.46600002 0.95300007 7104612
-0.34200001 -0.46600002 0.95400006 6709080
-0.30800003 -0.46750003 0.95250005 7234913
-0.30100003 -0.46600002 0.95100003 6510935
-0.27250001 -0.46799999 0.95200002 10396083
-0.32800001 -0.46400002 0.95300007 6511185
-0.32300001 -0.46300003 0.95100003 8879476
-0.31800002 -0.46200001 0.95000005 9208702
-0.287 -0.46400002 0.95000005 7696493
-0.35300002 -0.45600003 0.95000005 6840670
-0.59500003 -0.41500002 0.95100003 5792366
-0.59200001 -0.41600001 0.95400006 2765365
-0.60000002 -0.41000003 0.95000005 6187640
-0.59500003 -0.41100001 0.95200002 6253945
-0.602 -0.40600002 0.95100003 6319483
-0.59500003 -0.40600002 0.95300007 6385275
-0.13700001 -0.40800002 0.95100003 4801860
-0.60900003 -0.40200001 0.95000005 9608610
-0.60250002 -0.40200001 0.95250005 6450813
-0.61000001 -0.39800003 0.95200002 8621202
-0.60500002 -0.39800003 0.95400006 6517116
-0.13600001 -0.39900002 0.95200002 5262927
-0.61400002 -0.39300001 0.95100003 7701655
-0.61000001 -0.39300001 0.95300007 4279895
-0.13600001 -0.39500001 0.95300007 5329235
-0.61800003 -0.38900003 0.95000005 7899547
-0.61400002 -0.38700002 0.95300007 7965084
-0.60900003 -0.38900003 0.95400006 7701397
-0.13600001 -0.39000002 0.95000005 5329486
-0.62200004 -0.38000003 0.95000005 7767708
-0.61800003 -0.38200003 0.95150006 7899036
-0.62200004 -0.37500003 0.95100003 7767963
-0.61900002 -0.37600002 0.95400006 7833756
-0.13500001 -0.37600002 0.95000005 5657423
-0.62700003 -0.37100002 0.95000005 7768220
-0.62300003 -0.37100002 0.95300007 7833498
-0.13500001 -0.37200001 0.95100003 5394508
-0.62600005 -0.36600003 0.95100003 7767962
-0.62300003 -0.36700001 0.95400006 7833756
-0.13500001 -0.36800003 0.95200002 5394249
-0.62600005 -0.36100003 0.95100003 7834013
-0.62200004 -0.36200002 0.95400006 7768220
-0.13500001 -0.36500001 0.95400006 5525575
-0.62600005 -0.35700002 0.95200002 7702170
-0.13900001 -0.35800001 0.95300007 7627090
-0.63000005 -0.35200003 0.95100003 7833499
-0.62600005 -0.35200003 0.95300007 7767961
-0.34 -0.35000002 0.95300007 9336158
-0.17700002 -0.35200003 0.95000005 8480081
-0.171 -0.35200003 0.95100003 8545873
-0.16700001 -0.35200003 0.95100003 8348494
-0.163 -0.35200003 0.95200002 8414032
-0.15900001 -0.35200003 0.95200002 8414545
-0.153 -0.35350001 0.95175004 7822922
-0.147 -0.35350001 0.95250005 8546129
-0.14300001 -0.35350001 0.95250005 8480593
-0.63000005 -0.34800002 0.95200002 7833242
-0.24900001 -0.347 0.95000005 8677718
-0.245 -0.347 0.95100003 8743511
-0.23800001 -0.34650001 0.95050001 8743510
-0.23200001 -0.34600002 0.95000005 8611923
-0.22800002 -0.34600002 0.95000005 8611923
-0.222 -0.34600002 0.95100003 8677971
-0.21600001 -0.34500003 0.95100003 8677458
-0.21200001 -0.34600002 0.95200002 8677459
-0.208 -0.34600002 0.95300007 8743252
-0.2035 -0.34750003 0.95150006 8677459
-0.19833334 -0.34666669 0.9526667 8677458
-0.19266669 -0.34766665 0.95200008 8611666
-0.18700001 -0.34900001 0.95200002 8743252
-0.18300001 -0.34900001 0.95200002 8677205
-0.17700002 -0.34900001 0.95300007 8677459
-0.171 -0.34800002 0.95300007 8611665
-0.16700001 -0.34900001 0.95400006 8348494
-0.163 -0.34800002 0.95400006 8611666
-0.634 -0.34300002 0.95000005 7833756
-0.62900001 -0.34300002 0.95200002 7833502
-0.33400002 -0.34400001 0.95000005 9533791
-0.26100001 -0.34300002 0.95000005 2826009
-0.257 -0.34300002 0.95100003 8809559
-0.25300002 -0.34400001 0.95200002 8875608
-0.24900001 -0.34300002 0.95200002 8744024
-0.243 -0.34300002 0.95200002 8809559
-0.23700002 -0.34300002 0.95300007 8678229
-0.23300001 -0.34300002 0.95300007 8743509
-0.22800002 -0.34200001 0.95300007 8743764
-0.222 -0.34200001 0.95350003 8809044
-0.21600001 -0.34200001 0.95400006 8809045
-0.63200003 -0.33900002 0.95250005 7833499
-0.32800001 -0.338 0.95250005 9007446
-0.29700002 -0.33700001 0.95000005 1775638
-0.29100001 -0.33700001 0.95100003 1710103
-0.287 -0.33700001 0.95200002 1578777
-0.28300002 -0.33700001 0.95300007 1972502
-0.27850002 -0.33850002 0.95200002 2234906
-0.27200001 -0.34 0.95150006 2234907
-0.266 -0.34 0.95300007 7561810
-0.26200002 -0.34 0.95400006 9006936
-0.25800002 -0.34 0.95400006 8875609
-0.25400001 -0.34 0.95400006 8940631
-0.24900001 -0.34 0.95400006 8874837
-0.039000001 -0.33600003 0.95300007 11777209
-0.63800001 -0.33400002 0.95000005 7702168
-0.634 -0.33400002 0.95200002 7899036
-0.32100001 -0.33500001 0.95100003 7759181
-0.31600001 -0.33400002 0.95100003 2234638
-0.31200001 -0.33400002 0.95100003 1973021
-0.30800003 -0.33400002 0.95200002 2301214
-0.30200002 -0.33400002 0.95300007 2367008
-0.296 -0.33400002 0.95400006 2431511
-0.051000003 -0.33200002 0.95400006 10917261
-0.63700002 -0.32900003 0.95000005 7833756
-0.634 -0.33000001 0.95300007 7833243
-0.055000003 -0.32800001 0.95300007 10720132
-0.64200002 -0.32000002 0.95000005 7833243
-0.63700002 -0.32250002 0.95150006 7767451
-0.634 -0.32500002 0.95400006 7833243
-0.059000004 -0.32300001 0.95100003 10785662
-0.64200002 -0.31600001 0.95100003 7701657
-0.63700002 -0.31600001 0.95300007 7767450
-0.078000002 -0.31600001 0.95300007 10521465
-0.066 -0.31900001 0.95200002 10325114
-0.64200002 -0.31200001 0.95200002 7833241
-0.086000003 -0.31100002 0.95000005 10981756
-0.64700001 -0.30800003 0.95200002 7833242
-0.64200002 -0.30800003 0.95400006 7767450
-0.098000005 -0.30700001 0.95100003 10717560
-0.64700001 -0.303 0.95300007 7833241
-0.109 -0.303 0.95100003 10784640
-0.65100002 -0.29800001 0.95100003 7767450
-0.64700001 -0.29900002 0.95400006 7767448
-0.13700001 -0.296 0.95400006 10916221
-0.133 -0.29500002 0.95000005 11178366
-0.65233332 -0.29266667 0.95166665 7701914
-0.15300001 -0.29200003 0.95300007 10981759
-0.65366668 -0.28633335 0.95200008 7701913
-0.18100001 -0.28500003 0.95200002 11047806
-0.16900001 -0.289 0.95400006 10915709
-0.16500001 -0.28800002 0.95100003 10981502
-0.65900004 -0.28100002 0.95000005 7767448
-0.65500003 -0.28100002 0.95300007 7767448
-0.19700001 -0.28100002 0.95200002 11178882
-0.65750003 -0.27600002 0.95250005 7832473
-0.21300001 -0.27800003 0.95200002 11113601
-0.192 -0.28 0.95000005 11047295
-0.046000004 -0.27700001 0.95000005 12697800
-0.042000003 -0.27700001 0.95000005 14079453
-0.039000001 -0.27700001 0.95100003 13881820
-0.033 -0.27700001 0.95150006 13881563
-0.65900004 -0.27200001 0.95200002 7832473
-0.245 -0.27000001 0.95100003 10915963
-0.22900002 -0.27400002 0.95200002 11113342
-0.062000003 -0.27000001 0.95300007 7426613
-0.058000002 -0.27149999 0.95200002 7163186
-0.054000001 -0.27149999 0.95250005 13552335
-0.048 -0.27350003 0.95200002 13487315
-0.042000003 -0.27400002 0.95300007 14013660
-0.039000001 -0.27400002 0.95400006 14013149
-0.66300005 -0.26700002 0.95000005 7766680
-0.66000003 -0.26800001 0.95400006 7570069
-0.26200002 -0.26700002 0.95200002 11244925
-0.097000003 -0.26500002 0.95000005 11513264
-0.093000002 -0.26500002 0.95100003 10393753
-0.089000002 -0.266 0.95200002 9801101
-0.083000004 -0.266 0.95300007 8352622
-0.077500001 -0.26750001 0.95200002 7363660
-0.073000006 -0.26900002 0.95100003 7098678
-0.068000004 -0.26900002 0.95150006 7492918
-0.66300005 -0.26300001 0.95100003 7766934
-0.66000003 -0.26300001 0.95400006 7701655
-0.29500002 -0.26100001 0.95300007 11508099
-0.27900001 -0.264 0.95300007 11310720
-0.108 -0.26100001 0.95000005 11447730
-0.103 -0.26200002 0.95150006 7697785
-0.097000003 -0.26200002 0.95300007 10724261
-0.093000002 -0.26200002 0.95400006 10065302
-0.66400003 -0.259 0.95300007 7701655
-0.34300002 -0.25600001 0.95400006 11442819
-0.33700001 -0.25500003 0.95200002 11442817
-0.32100001 -0.259 0.95400006 11573122
-0.31600001 -0.257 0.95100003 11311232
-0.16700001 -0.25500003 0.95000005 8942180
-0.162 -0.25500003 0.95150006 9866123
-0.156 -0.25500003 0.95200002 10920614
-0.15200001 -0.25500003 0.95300007 10724007
-0.148 -0.25500003 0.95200002 10789800
-0.14400001 -0.25500003 0.95200002 11447730
-0.13800001 -0.25500003 0.95250005 11052972
-0.132 -0.25650001 0.95150006 10658215
-0.12800001 -0.25650001 0.95200002 9408147
-0.12400001 -0.25650001 0.95250005 9013132
-0.118 -0.25800002 0.95200002 11381936
-0.112 -0.25800002 0.95200002 7697527
-0.109 -0.25800002 0.95300007 11645363
-0.105 -0.25800002 0.95400006 8289919
-0.66800004 -0.25400001 0.95100003 7701909
-0.66400003 -0.25400001 0.95400006 7636375
-0.36000001 -0.252 0.95300007 10786177
-0.354 -0.25100002 0.95000005 10851712
-0.33200002 -0.25400001 0.95000005 11508098
-0.18300001 -0.25100002 0.95000005 8216130
-0.17750001 -0.25150001 0.95150006 8150594
-0.17200001 -0.252 0.95300007 8281923
-0.16800001 -0.252 0.95400006 8086094
-0.67350006 -0.248 0.95100003 7570322
-0.66900003 -0.25 0.95300007 7570322
-0.40700001 -0.24600001 0.95000005 8023137
-0.38600001 -0.25 0.95400006 8615527
-0.38100001 -0.24900001 0.95200002 9996150
-0.37600002 -0.24800001 0.95100003 10982786
-0.20300001 -0.24800001 0.95000005 8347713
-0.19900002 -0.24800001 0.95000005 8216128
-0.19300002 -0.24800001 0.95050001 8150336
-0.18700001 -0.24800001 0.95200002 8216129
-0.18400002 -0.24800001 0.95300007 8216129
-0.67400002 -0.24100001 0.95300007 7636115
-0.24800001 -0.24100001 0.95000005 8545094
-0.24400002 -0.24200001 0.95100003 8545094
-0.23800001 -0.24200001 0.95250005 8479557
-0.23200001 -0.24200001 0.95400006 8413508
-0.223 -0.245 0.95000005 8545094
-0.2175 -0.245 0.95200002 8413506
-0.21200001 -0.245 0.95400006 8413506
-0.208 -0.245 0.95400006 8347713
-0.20400001 -0.245 0.95400006 8347713
-0.19800001 -0.245 0.95400006 8281921
-0.192 -0.24400002 0.95400006 8281922
-0.67700005 -0.23600002 0.95000005 7636116
-0.67400002 -0.23700002 0.95400006 7636116
-0.287 -0.23500001 0.95100003 8479553
-0.28100002 -0.23500001 0.95300007 8479552
-0.27700001 -0.23500001 0.95300007 8479553
-0.273 -0.23500001 0.95400006 8545092
-0.26800001 -0.23800001 0.95000005 8479299
-0.26249999 -0.2385 0.95200002 8610885
-0.25600001 -0.23800001 0.95300007 8676678
-0.25300002 -0.23900001 0.95400006 8479555
-0.67700005 -0.23200001 0.95100003 7570323
-0.30200002 -0.23200001 0.95100003 8545092
-0.29800001 -0.23200001 0.95200002 8479299
-0.294 -0.23200001 0.95400006 8347713
-0.67800003 -0.22800002 0.95200002 7701139
-0.31800002 -0.22800002 0.95000005 8479299
-0.3125 -0.22900002 0.95250005 8413506
-0.30700001 -0.22900002 0.95400006 8413506
-0.68100005 -0.223 0.95000005 7701139
-0.67700005 -0.223 0.95200002 7701139
-0.35200003 -0.22200002 0.95000005 8545603
-0.347 -0.22200002 0.95250005 8545346
-0.34100002 -0.22200002 0.95400006 8479298
-0.333 -0.22500001 0.95050001 8479297
-0.32700002 -0.22500001 0.95300007 8413760
-0.32300001 -0.22500001 0.95400006 8413760
-0.68200004 -0.21900001 0.95100003 7701140
-0.67800003 -0.21900001 0.95400006 7766934
-0.36800003 -0.21900001 0.95050001 8479558
-0.36200002 -0.21900001 0.95300007 8479814
-0.35800001 -0.21900001 0.95300007 8610886
-0.68200004 -0.21400002 0.95200002 7569553
-0.41000003 -0.21300001 0.95200002 3809815
-0.40600002 -0.21300001 0.95300007 9203548
-0.40200001 -0.21300001 0.95300007 8939853
-0.39700001 -0.21200001 0.95300007 8939852
-0.39300001 -0.21200001 0.95300007 8742473
-0.38800001 -0.21200001 0.95300007 8742473
-0.38300002 -0.215 0.95000005 8677193
-0.37700003 -0.215 0.95250005 8479814
-0.37100002 -0.215 0.95400006 8611398
-0.68600005 -0.20500001 0.95100003 7504530
-0.68300003 -0.21000001 0.95400006 7504017
-0.68700004 -0.20100001 0.95300007 7635604
-0.69100004 -0.19700001 0.95100003 7701139
-0.68800002 -0.19700001 0.95400006 7569553
-0.69200003 -0.192 0.95200002 7569552
-0.69200003 -0.18800001 0.95300007 7503502
-0.69500005 -0.18300001 0.95000005 7569553
-0.69200003 -0.18400002 0.95400006 7634833
-0.69600004 -0.17700002 0.95200002 7569296
-0.70050001 -0.16800001 0.95100003 7635346
-0.69700003 -0.17 0.95400006 7569555
-0.70500004 -0.16100001 0.95000005 7569553
-0.70200002 -0.162 0.95300007 7569296
-0.70600003 -0.15700001 0.95100003 7569553
-0.70600003 -0.15300001 0.95200002 7635345
-0.70700002 -0.148 0.95300007 7700882
0.68400002 -0.147 0.95400006 7565661
0.68800002 -0.147 0.95200002 7104339
-0.70850003 -0.14400001 0.95200002 7700626
0.66500002 -0.142 0.95300007 7696222
0.67000002 -0.142 0.95200002 7762016
0.67500001 -0.142 0.95100003 7828063
-0.71100003 -0.13500001 0.95200002 7634833
-0.71000004 -0.13900001 0.95100003 7569553
0.64200002 -0.13600001 0.95300007 7433045
0.64700001 -0.13600001 0.95200002 7235925
0.65200001 -0.13600001 0.95100003 7301719
0.65700001 -0.13700001 0.95000005 7433819
-0.71100003 -0.13100001 0.95300007 7569040
0.63100004 -0.13100001 0.95400006 7499095
0.63500005 -0.13100001 0.95100003 7170130
-0.71350002 -0.126 0.95200002 7569297
-0.053000003 -0.127 0.95200002 14012117
0.625 -0.127 0.95300007 7499096
-0.71600002 -0.12200001 0.95200002 7700625
-0.072000004 -0.123 0.95400006 9206130
-0.068000004 -0.123 0.95100003 9206129
0.61900002 -0.12200001 0.95200002 6906961
-0.71700001 -0.11700001 0.95300007 7635088
-0.099000007 -0.116 0.95200002 8876908
-0.087000005 -0.12 0.95400006 8943470
-0.083000004 -0.119 0.95100003 9140338
-0.72100002 -0.11300001 0.95100003 7700626
-0.11800001 -0.112 0.95400006 8351334
-0.11400001 -0.112 0.95100003 8482920
-0.72100002 -0.109 0.95200002 7700626
-0.13800001 -0.109 0.95400006 8351335
-0.133 -0.108 0.95100003 8285287
-0.72600001 -0.104 0.95000005 7700626
-0.72200006 -0.104 0.95300007 7700626
-0.16100001 -0.101 0.95400006 6838865
-0.156 -0.101 0.95100003 6575693
-0.14700001 -0.1045 0.95200002 7957093
-0.72750008 -0.098000005 0.95300007 7700882
-0.17600001 -0.097000003 0.95400006 6838350
-0.17200001 -0.097000003 0.95000005 6838092
-0.72800004 -0.091000006 0.95400006 13359079
-0.19600001 -0.094000004 0.95300007 6903886
-0.192 -0.094000004 0.95200002 6772300
-0.18800001 -0.093000002 0.95100003 6772300
-0.075000003 -0.092000008 0.95000005 6375994
-0.068000004 -0.092000008 0.95000005 6441788
-0.064000003 -0.092000008 0.95000005 6376253
-0.058500003 -0.092000008 0.95100003 9272437
-0.053000003 -0.092000008 0.95100003 14013145
-0.049000002 -0.092000008 0.95000005 13814485
-0.72800004 -0.087000005 0.95400006 14413051
-0.24700001 -0.087000005 0.95100003 8351335
-0.24400002 -0.087000005 0.95400006 8351335
-0.23750001 -0.086500004 0.95300007 8088677
-0.23100001 -0.086000003 0.95000005 8022884
-0.22000001 -0.090000004 0.95400006 8022627
-0.215 -0.090000004 0.95100003 7826020
-0.10600001 -0.089000002 0.95000005 5653042
-0.10200001 -0.089000002 0.95000005 5784627
-0.096500009 -0.089000002 0.95150006 5850165
-0.091000006 -0.089000002 0.95300007 5981493
-0.087000005 -0.089000002 0.95300007 6112823
-0.081500009 -0.089000002 0.95300007 6244408
-0.076000005 -0.089000002 0.95300007 6310201
-0.072000004 -0.089000002 0.95300007 6310201
-0.068000004 -0.089000002 0.95300007 6441787
-0.0625 -0.089000002 0.95350003 6245699
-0.057000004 -0.089000002 0.95400006 10853534
-0.053000003 -0.089000002 0.95300007 14012376
-0.049000002 -0.089000002 0.95200002 13880278
-0.045000002 -0.088000007 0.95000005 13946071
-0.16800001 -0.082000002 0.95000005 4797995
-0.162 -0.082000002 0.95100003 5061166
-0.156 -0.082000002 0.95200002 4534566
-0.15200001 -0.082000002 0.95200002 4600613
-0.14700001 -0.082000002 0.95250005 4929835
-0.141 -0.082000002 0.95400006 4995883
-0.13700001 -0.082000002 0.95400006 4995883
-0.133 -0.085000001 0.95000005 5126957
-0.12900001 -0.085000001 0.95000005 5324336
-0.1235 -0.085000001 0.95200002 5324080
-0.11800001 -0.085000001 0.95300007 5324336
-0.112 -0.085000001 0.95350003 5587507
-0.10600001 -0.085000001 0.95400006 5653300
-0.10300001 -0.085000001 0.95400006 5719093
-0.049000002 -0.083000004 0.95400006 13880789
-0.045000002 -0.085000001 0.95100003 13814741
-0.18700001 -0.078000002 0.95000005 4535077
-0.18400002 -0.078000002 0.95200002 4534820
-0.178 -0.078000002 0.95350003 4403234
-0.049000002 -0.077000007 0.95300007 13881045
-0.213 -0.071000002 0.95050001 5258283
-0.20700002 -0.071000002 0.95200002 5455405
-0.20400001 -0.071000002 0.95400006 5323819
-0.19900002 -0.074000001 0.95000005 4534819
-0.19350001 -0.074000001 0.95300007 4732455
-0.22700001 -0.067000002 0.95100003 5521198
-0.22150001 -0.067000002 0.95300007 5521197
-0.23500001 -0.063000001 0.95100003 5520944
-0.23900001 -0.057500005 0.95150006 5521199
-0.40900001 -0.046000004 0.95300007 14272657
-0.064000003 0.014 0.95400006 3093831
-0.060000002 0.012 0.95000005 3620177
-0.095000006 0.018000001 0.95400006 7692630
-0.087000005 0.018000001 0.95300007 7363919
-0.083000004 0.018000001 0.95400006 7824469
-0.064000003 0.018000001 0.95200002 3028035
-0.091000006 0.021000002 0.95300007 8152408
-0.087000005 0.021000002 0.95300007 8086871
-0.083000004 0.021000002 0.95400006 7955802
-0.072000004 0.021000002 0.95400006 3223613
-0.068000004 0.021000002 0.95300007 3093311
-0.097000003 0.029000001 0.95350003 7627352
-0.091000006 0.027000001 0.95300007 7890010
-0.087000005 0.027000001 0.95200002 7955802
-0.083000004 0.027000001 0.95150006 7758424
-0.077000007 0.025 0.95200002 7692631
-0.071000002 0.025 0.95000005 3815234
-0.11000001 0.033 0.95400006 7232594
-0.10600001 0.033 0.95300007 7429717
-0.10200001 0.033 0.95100003 7561302
-0.098000005 0.033 0.95000005 7495509
-0.123 0.037 0.95350003 6969680
-0.11700001 0.037 0.95200002 7561559
-0.112 0.036499999 0.95050001 7298130
-0.156 0.044000003 0.95400006 7034961
-0.15200001 0.044000003 0.95300007 7232597
-0.148 0.044000003 0.95200002 7429974
-0.14250001 0.042500004 0.95200002 7034959
-0.13700001 0.040000003 0.95200002 7429461
-0.133 0.040000003 0.95100003 7694432
-0.12900001 0.040000003 0.95000005 7891298
-0.18400002 0.048 0.95400006 7101265
-0.178 0.048 0.95350003 7561302
-0.17200001 0.048 0.95200002 7627098
-0.16800001 0.048 0.95100003 7561305
-0.162 0.048 0.95050001 6837839
-0.32200003 0.054000001 0.95400006 8479818
-0.2 0.052000001 0.95400006 8153439
-0.19300002 0.052000001 0.95250005 7101011
-0.18700001 0.052000001 0.95100003 7758940
-0.18300001 0.052000001 0.95000005 6969168
-0.32200003 0.058000002 0.95400006 8282698
-0.23500001 0.056000002 0.95300007 8152408
-0.23100001 0.056000002 0.95300007 7758166
-0.22700001 0.056000002 0.95200002 7955032
-0.223 0.056000002 0.95200002 7297615
-0.21900001 0.056000002 0.95200002 7561044
-0.213 0.056000002 0.95100003 7758167
-0.20700002 0.056000002 0.95000005 7363667
-0.20300001 0.056000002 0.95000005 7561303
-0.32200003 0.061000004 0.95300007 8151112
-0.26700002 0.064000003 0.95100003 7954773
-0.26233336 0.062000003 0.9526667 8218201
-0.25600001 0.061000004 0.95300007 8021338
-0.25100002 0.060000002 0.95200002 7166799
-0.24700001 0.060000002 0.95200002 8482915
-0.24300002 0.060000002 0.95100003 8614758
-0.23900001 0.060000002 0.95000005 7824473
-0.32100001 0.065000005 0.95100003 8480080
-0.317 0.069000006 0.95200002 8742998
-0.31300002 0.069000006 0.95200002 7558724
-0.30900002 0.069000006 0.95200002 8414546
-0.30300003 0.069000006 0.95200002 8414548
-0.29700002 0.069000006 0.95200002 8414035
-0.29200003 0.069000006 0.95200002 7230533
-0.28800002 0.069000006 0.95100003 7954256
-0.28300002 0.069000006 0.95000005 8086614
-0.278 0.065000005 0.95250005 7954257
-0.27100003 0.065000005 0.95100003 7757393
-0.17500001 -0.50300002 0.95900005 7762285
-0.171 -0.50200003 0.95800006 7105132
-0.21300001 -0.49500003 0.95800006 12437724
-0.20900001 -0.49500003 0.95700002 12437467
-0.192 -0.49900001 0.95900005 7892843
-0.18700001 -0.49800003 0.95700002 8154988
-0.18300001 -0.49700001 0.95500004 8418925
-0.22800002 -0.49150002 0.95800006 10068663
-0.20400001 -0.49300003 0.95500004 12701407
