# .PCD v0.7 - Point Cloud Data file format
VERSION 0.7
FIELDS x y z rgb
SIZE 4 4 4 4
TYPE F F F U
COUNT 1 1 1 1
WIDTH 1187
HEIGHT 1
VIEWPOINT 0 0 0 1 0 0 0
POINTS 1187
DATA ascii
-0.13225001 0.13150001 0.65700006 3805210
-0.12800001 0.13200001 0.65900004 3936539
-0.123 0.133 0.65900004 4527133
-0.093000002 0.132 0.65900004 8265000
-0.088 0.13266666 0.65633339 8199208
-0.085000001 0.13100001 0.65500003 7477799
-0.077666678 0.13233334 0.65566665 4460827
-0.055500001 0.13250001 0.65750003 4199708
-0.053000003 0.13250001 0.65550005 3085082
-0.0060000005 0.13200001 0.65599996 3805469
-0.0020000001 0.134 0.65900004 3805722
-0.13166668 0.13633335 0.65599996 3870746
-0.127 0.13700001 0.65724999 4002332
-0.123 0.13700001 0.65750003 4723997
-0.119 0.13700001 0.65850002 6034721
-0.1135 0.13700001 0.65850002 6493731
-0.10800001 0.1365 0.65750003 6493474
-0.10250001 0.1365 0.65775001 6821924
-0.097250007 0.1365 0.65825003 7936292
-0.093000002 0.13600001 0.65750003 8395560
-0.089000009 0.13633335 0.65600002 8330792
-0.07333333 0.13633335 0.65700006 4133404
-0.056000002 0.13700001 0.65900004 1905434
-0.053000003 0.13700001 0.65700001 2104094
-0.050000001 0.13750002 0.65550005 2365986
-0.0060000005 0.13800001 0.65566671 3739931
-0.0020000001 0.13800001 0.65800005 3805467
-0.12800001 0.141 0.65500003 4133918
-0.12366667 0.14166667 0.65533334 4527390
-0.11850001 0.142 0.65550005 6362915
-0.11366668 0.14099999 0.65566671 6625059
-0.1075 0.14 0.65500003 6361889
-0.10250001 0.14 0.65550005 6559011
-0.096750006 0.1415 0.65550005 7936550
-0.093000002 0.141 0.65550005 8330024
-0.090000004 0.141 0.65500003 8264744
-0.071000002 0.14 0.65600002 4133148
-0.068000004 0.14166667 0.65700006 4001562
-0.0625 0.14300001 0.65900004 4002331
-0.056666672 0.142 0.65900004 2955040
-0.053000003 0.141 0.65800005 2301474
-0.050000001 0.142 0.65600002 2235940
-0.016000001 0.14300001 0.65550005 1708053
-0.011500001 0.14300001 0.65550005 2625045
-0.0065000006 0.14300001 0.65600002 3411993
-0.0020000001 0.142 0.65800005 3543321
-0.25600001 0.149 0.65900004 9903653
-0.066 0.14500001 0.65500003 3543320
-0.062000006 0.14600001 0.65700006 3543321
-0.057000004 0.14675 0.65825003 2759455
-0.053000003 0.14650001 0.65750003 2367269
-0.050000001 0.146 0.65550005 2235939
-0.022 0.14633334 0.65566671 1642517
-0.017333334 0.14633334 0.6566667 1708054
-0.011500001 0.147 0.65700001 2690837
-0.0065000001 0.147 0.65700001 3411991
-0.0020000001 0.14650001 0.65750003 3543321
0 0.148 0.65900004 3739930
-0.25600001 0.15200001 0.65900004 9772580
-0.057000004 0.15000001 0.65550005 2300189
-0.053000003 0.15000001 0.65600002 2301731
-0.022500001 0.15000001 0.65500003 1905175
-0.016666668 0.15066667 0.65566671 2887961
-0.011500001 0.15150002 0.65675002 3346457
-0.0065000006 0.15150002 0.65700001 3346200
-0.0020000001 0.15150002 0.65750003 3478042
0 0.15200001 0.65900004 3216153
-0.25600001 0.15650001 0.65800005 9903399
-0.011000001 0.156 0.65533334 3740445
-0.0065000006 0.1565 0.65575004 3674650
-0.0020000001 0.15700001 0.65649998 3543321
0 0.1575 0.65850008 3478041
-0.25600001 0.162 0.65700001 9378851
-0.0050000004 0.16100001 0.65500003 3805723
-0.0020000001 0.162 0.65550005 3740443
0 0.16250001 0.65800005 3740190
-0.25650001 0.16750002 0.65700001 9116961
0 0.16700001 0.65900004 3673879
-0.257 0.17200001 0.65800005 9380130
-0.0020000001 0.17200001 0.65500003 3411991
-0.25749999 0.17650001 0.65800005 9183268
-0.0020000001 0.17650001 0.65600002 3149592
-0.25800002 0.18100001 0.65900004 9248287
-0.0020000001 0.18100001 0.65800005 3281176
-0.0050000004 0.18900001 0.65500003 3150103
-0.0050000004 0.192 0.65600002 3150102
-0.25500003 0.19800001 0.65600002 8920612
-0.0050000004 0.1965 0.65799999 2953239
-0.25600001 0.20200001 0.65800005 9379878
-0.0050000004 0.20300001 0.65600002 2953753
0.027000001 0.21300001 0.65900004 1579037
-0.25800002 0.21700001 0.65900004 8725026
-0.257 0.22100002 0.65600002 8134431
0.011000001 0.22400001 0.65900004 3808546
0.019000001 0.22100002 0.65700001 3873572
-0.0050000004 0.23800001 0.65500003 1774366
-0.26250002 0.24300002 0.65650004 7674396
-0.26700002 0.252 0.65900004 7412508
0 0.25 0.65700001 1315100
-0.26900002 0.257 0.65500003 7543324
-0.266 0.27400002 0.65900004 1576722
-0.003 0.27400002 0.65600002 1580349
-0.25300002 0.27500001 0.65800005 4929599
-0.24800001 0.27800003 0.65900004 11186103
-0.23700002 0.27900001 0.65500003 9671572
-0.003 0.27800003 0.65700001 1580095
-0.23500001 0.28300002 0.65800005 7043199
-0.22800002 0.28400001 0.65500003 4149346
-0.003 0.28 0.65600002 1580608
-0.23200001 0.28750002 0.65750003 5662326
-0.22900002 0.28800002 0.65500003 4478827
-0.23600002 0.29100001 0.65799999 8753562
-0.088 0.022000002 0.66300005 1447195
-0.084000006 0.023000002 0.66300005 1118230
-0.164 0.029000001 0.66400003 7540251
-0.088500008 0.0265 0.66250002 1841698
-0.084000006 0.026500002 0.66300005 1973284
-0.16100001 0.031000001 0.66400003 5050903
-0.0845 0.032000002 0.66300005 1709856
-0.092000008 0.036000002 0.66200006 1710369
-0.085000001 0.041000001 0.66300005 1775647
-0.23600002 0.048 0.66300005 1841693
-0.22900002 0.045000002 0.66000003 1118226
-0.1 0.049000002 0.66100001 2170659
-0.082000002 0.047000002 0.66400003 3020061
-0.23633336 0.053000003 0.66133338 1446935
-0.2265 0.052500002 0.66250002 920591
-0.079000004 0.052000001 0.66100001 2297879
-0.23666668 0.057333335 0.66300005 2039071
-0.22350001 0.058000006 0.66400003 986127
-0.096000001 0.055000003 0.66400003 2039074
-0.090000004 0.057000004 0.66000003 2038303
-0.076000005 0.057000004 0.66200006 3281178
-0.21700001 0.064000003 0.66000003 986896
-0.087000005 0.060000002 0.66400003 1905171
-0.083499998 0.0625 0.66250002 5970979
-0.077 0.06133334 0.6606667 5117471
-0.074000001 0.061500002 0.66400003 4593182
-0.23250002 0.066 0.66050005 1577752
-0.21600001 0.067000002 0.66300005 1118483
-0.082000002 0.066500008 0.66300005 6361628
-0.078000002 0.066000007 0.6606667 5117213
-0.072500005 0.066500008 0.66200006 5251627
-0.069000006 0.068000004 0.66400003 6298920
-0.23300001 0.071500003 0.66200006 2038304
-0.215 0.07 0.66100001 1249556
-0.14566667 0.07333333 0.66333342 7214368
-0.142 0.072500005 0.66350007 5838109
-0.13900001 0.074000001 0.66400003 4919579
-0.082000002 0.071000002 0.66400003 7870243
-0.078000002 0.071000002 0.66100007 7870500
-0.072500005 0.07 0.66050005 7871013
-0.067000002 0.07 0.66150004 7936551
-0.062000003 0.07 0.66200006 7805737
-0.056500003 0.07 0.66100001 6820639
-0.052000001 0.07 0.66000003 6821410
-0.050000001 0.07 0.66000003 6755873
-0.010000001 0.07 0.66000003 3673626
-0.0065000006 0.071500003 0.66225004 3542809
-0.2475 0.079000004 0.66350007 3346710
-0.24300002 0.079000004 0.66400003 1973792
-0.23850001 0.079000004 0.66350007 2104097
-0.23300001 0.077000007 0.66150004 1972511
-0.21200001 0.075000003 0.66100001 1184022
-0.21000001 0.078000002 0.66400003 1183765
-0.15000001 0.077000007 0.66300005 8262948
-0.14633334 0.077666678 0.66200006 7477023
-0.14266668 0.078333341 0.66166669 6559519
-0.13900001 0.078000009 0.66300005 4526619
-0.080000006 0.079000004 0.66400003 7477028
-0.077500001 0.077000007 0.66100001 7084068
-0.0065000001 0.07675001 0.66150004 2625302
-0.24900001 0.082000002 0.66300005 4786960
-0.24350001 0.083000004 0.66150004 2823194
-0.23750001 0.082750008 0.66125 2104096
-0.23300001 0.081 0.66000003 2104097
-0.208 0.082500003 0.66200006 1052434
-0.15150002 0.081 0.66300005 8197923
-0.147 0.082000002 0.66100001 8197922
-0.14300001 0.082000002 0.66100001 6952480
-0.13800001 0.082000002 0.66300005 4264475
-0.077000007 0.081 0.66300005 2431258
-0.074000001 0.084000006 0.66100001 1971221
-0.0065000006 0.082249999 0.66200006 1970452
-0.24800001 0.086000003 0.66150004 6165529
-0.24350001 0.087000005 0.66000003 3413528
-0.23900001 0.087000005 0.66000003 2169888
-0.20500001 0.086000003 0.66400003 1052950
-0.20400001 0.089000002 0.66100001 987154
-0.156 0.086500004 0.66350007 8330022
-0.15150002 0.086500004 0.66175008 8329509
-0.147 0.086000003 0.66050005 8395043
-0.14250001 0.085000001 0.66000003 7149088
-0.13800001 0.086250007 0.66225004 4264475
-0.071500003 0.087500006 0.66200006 1578008
-0.0080000004 0.087500006 0.66100001 1117457
-0.252 0.093000002 0.66400003 9313573
-0.24800001 0.091499999 0.66050005 7936545
-0.2015 0.09300001 0.66250002 1183762
-0.162 0.094000004 0.66400003 8198692
-0.1575 0.092 0.66300005 8263717
-0.15200001 0.090999998 0.6606667 8592425
-0.13700001 0.090999998 0.66100001 4067354
-0.069000006 0.092000008 0.66100001 1577751
-0.0080000004 0.092500001 0.66100001 1249298
-0.2525 0.097500004 0.66350007 9444901
-0.20100001 0.097000003 0.66000003 1052434
-0.19800001 0.097000003 0.66225004 3346457
-0.193 0.097000003 0.66400003 3739930
-0.17600001 0.099000007 0.66400003 5247260
-0.17200001 0.099000007 0.66400003 5903391
-0.16800001 0.099000007 0.66400003 7412001
-0.16350001 0.097500004 0.66375005 7935777
-0.1575 0.09725 0.66100001 8526374
-0.15300001 0.096000001 0.66000003 8723752
-0.13600001 0.096500009 0.66050005 3739160
-0.134 0.097500004 0.66400003 3673367
-0.069000006 0.095000006 0.66300005 1643798
-0.0080000004 0.098000005 0.66100001 1905174
-0.252 0.103 0.66250002 9444902
-0.19600001 0.1 0.66100001 3543065
-0.19125001 0.101 0.66150004 3936282
-0.1875 0.101 0.66300005 4722715
-0.18325001 0.101 0.66300005 5050652
-0.17740002 0.1024 0.66159999 5050650
-0.17300001 0.103 0.66150004 5640990
-0.16875002 0.103 0.66200006 7280417
-0.163 0.103 0.66125005 8197666
-0.15800001 0.101 0.66000003 8526373
-0.134 0.10250001 0.66300005 3804953
-0.066 0.1015 0.66150004 1840666
-0.0080000004 0.10200001 0.66100001 2953240
-0.252 0.10700001 0.66200006 8985122
-0.18700001 0.105 0.66000003 4591897
-0.1825 0.105 0.66000003 4985114
-0.17300001 0.10700001 0.66000003 6099486
-0.16850001 0.10700001 0.66000003 7411490
-0.164 0.10700001 0.66000003 8000545
-0.134 0.1075 0.66150004 3805210
-0.066 0.1065 0.66350007 6756901
-0.063000001 0.108 0.66000003 7019300
-0.0080000004 0.10600001 0.66100001 3346459
-0.252 0.111 0.66050005 8788256
-0.13333334 0.11266667 0.66166669 3871003
-0.096000001 0.11250001 0.66350007 7740198
-0.092 0.11250001 0.66350007 7084067
-0.088000007 0.11400001 0.66300005 6166820
-0.085000001 0.11400001 0.66400003 5314080
-0.066 0.11100001 0.66400003 7805991
-0.064000003 0.112 0.66150004 7543334
-0.0060000005 0.11133334 0.66233343 3740191
-0.252 0.11650001 0.66000003 9116963
-0.13266666 0.11633334 0.662 3936539
-0.12900001 0.11800001 0.66400003 4068125
-0.097000003 0.11766667 0.66300005 7937064
-0.093000002 0.118 0.66150004 7871273
-0.089000002 0.11750001 0.66050005 7084321
-0.083200008 0.11800001 0.66260004 4920350
-0.063000001 0.11766667 0.662 7346470
-0.0050000004 0.11700001 0.66050005 3739677
-0.0020000001 0.119 0.66400003 3739932
-0.13150001 0.1215 0.66150004 3870746
-0.1275 0.1215 0.66300005 3870746
-0.1225 0.123 0.66350007 4527133
-0.10200001 0.123 0.66400003 7937062
-0.098000012 0.12133334 0.66333336 8067878
-0.093000002 0.12200001 0.66100001 8198951
-0.090000004 0.12200001 0.66000003 7936806
-0.080666669 0.12266668 0.66133338 4264474
-0.062000003 0.12233334 0.66233337 7411750
-0.0050000004 0.12100001 0.66000003 3674139
-0.0020000001 0.1225 0.66300005 3674138
-0.13100001 0.125 0.66000003 3871003
-0.1275 0.12650001 0.66100001 3805210
-0.12200001 0.12650001 0.66200006 4789534
-0.11733335 0.12666667 0.66366673 5642015
-0.11275001 0.12725002 0.66325009 6035232
-0.10700001 0.12800001 0.66300005 7280419
-0.10350001 0.12650001 0.66350007 7739427
-0.097500004 0.12650001 0.66225004 8133414
-0.093000002 0.126 0.66050005 8395817
-0.076333337 0.12633334 0.66233343 4264734
-0.063000001 0.12633334 0.66333336 7805223
-0.058000002 0.12900001 0.66000003 7476768
-0.0020000001 0.12800001 0.66150004 3739930
-0.257 0.133 0.66400003 9969705
-0.126 0.13100001 0.66000003 3674136
-0.12166667 0.13133334 0.66033334 5182237
-0.11800001 0.132 0.66100001 6493474
-0.11250001 0.13200001 0.66116673 6362401
-0.10700001 0.13150001 0.66100001 6690595
-0.10275 0.13150001 0.66100001 7542820
-0.097500011 0.13150001 0.66050005 8002085
-0.093000002 0.13000001 0.66000003 8396843
-0.075000003 0.13000001 0.66200006 4657438
-0.072666667 0.13166666 0.66166669 4657695
-0.068000004 0.13150001 0.66350007 6297377
-0.0625 0.13125001 0.66225004 7936546
-0.058000002 0.132 0.66000003 7543586
-0.0020000001 0.132 0.66000003 3871003
0 0.132 0.66400003 3805210
-0.257 0.13750002 0.66250002 9904169
-0.072000004 0.13500001 0.66000003 4460830
-0.068000004 0.1365 0.66150004 4985887
-0.0625 0.1365 0.66100001 6625311
-0.058000002 0.13600001 0.66000003 6756128
0 0.1365 0.66250002 3739930
-0.25650001 0.14250001 0.66050005 9903911
-0.066 0.14 0.66000003 4198426
-0.0625 0.14 0.66000003 4460829
-0.058000002 0.14 0.66000003 5182237
0 0.1415 0.66050005 3674137
-0.25600001 0.147 0.66000003 9904164
0 0.14500001 0.66000003 3543321
0 0.17200001 0.66100001 3411991
-0.0020000001 0.18400002 0.66000003 3149849
-0.26000002 0.18800001 0.66200006 9576228
-0.259 0.185 0.66000003 9576741
-0.0020000001 0.18800001 0.66200006 3084823
-0.26100001 0.192 0.66400003 9314596
-0.0020000001 0.19100001 0.66400003 2953753
-0.0050000004 0.20100001 0.66000003 2888215
-0.25749999 0.20700002 0.66050005 9117990
-0.0020000001 0.20700002 0.66000003 2495001
-0.25800002 0.21200001 0.66100001 9183010
0.003 0.21100001 0.66400003 1839639
0.014 0.21100001 0.66300005 2236709
0.018000001 0.21100001 0.66200006 2368039
0.022000002 0.21100001 0.66400003 1710112
-0.25800002 0.215 0.66100001 8856356
0 0.22800002 0.66100001 3611428
-0.264 0.23400001 0.66300005 8396066
-0.0050000004 0.23100001 0.66100001 2101016
-0.26350001 0.23800001 0.66100001 8002593
-0.003 0.24300002 0.66200006 1446686
0 0.24900001 0.66200006 1444884
-0.26900002 0.25 0.66400003 7805979
-0.27200001 0.257 0.66300005 7609117
0 0.25700003 0.66250002 1380634
-0.27500001 0.26000002 0.66200006 8267559
-0.26300001 0.27400002 0.66000003 2101523
-0.24200001 0.28100002 0.66000003 11447982
-0.24100001 0.289 0.66400003 10068651
-0.23850001 0.28650004 0.66150004 8423826
-0.24000001 0.29200003 0.66200006 10332080
0 0.29699999 0.66250002 1844293
-0.17750001 0.013 0.66900003 10193034
-0.17266667 0.011 0.66866666 11310747
-0.17 0.013 0.66800004 11111569
-0.14650001 0.010000001 0.66850007 9470863
-0.14250001 0.011 0.66850007 9799569
-0.13850001 0.011 0.66775 8944518
-0.133 0.011333334 0.66766673 7958140
-0.1275 0.012 0.66800004 8945034
-0.123 0.012 0.66900003 7694970
-0.18200001 0.015000001 0.66900003 1378573
-0.17750001 0.015000001 0.66850007 1247244
-0.1735 0.0165 0.66850007 5509911
-0.17 0.0165 0.66800004 8791599
-0.13250001 0.015000001 0.66850007 8681095
-0.12699999 0.016000001 0.66800004 8418435
-0.123 0.0165 0.66750002 7957884
-0.119 0.0165 0.66800004 9141386
-0.1128 0.0162 0.66860008 10390934
-0.10766667 0.017000001 0.66833335 8812671
-0.10250001 0.018000001 0.66850007 1446680
-0.099000007 0.018000001 0.66900003 1841699
-0.091000006 0.018000001 0.66900003 1841953
-0.088000007 0.018000001 0.66900003 1841954
-0.112 0.020000001 0.66900003 8614780
-0.10800001 0.020000001 0.66800004 7694703
-0.10250001 0.020000001 0.66800004 1776158
-0.099000007 0.020000001 0.66900003 1052437
-0.093000002 0.021500003 0.66650003 1512731
-0.090000004 0.020000001 0.66500002 1380889
-0.082999997 0.021000003 0.66566664 1512731
-0.16800001 0.0275 0.66850007 9577518
-0.16266668 0.027000001 0.66733336 7542561
-0.15900001 0.029000001 0.66600001 5640217
-0.093000002 0.027000001 0.66750002 1841441
-0.082000002 0.027000001 0.66600001 2038819
-0.164 0.031000001 0.66500002 4987942
-0.1575 0.031000001 0.66650003 3673365
-0.093000002 0.032500003 0.66650003 1775648
-0.085000001 0.037500001 0.66500002 1446683
-0.097000003 0.043000005 0.66600001 1842210
-0.23800001 0.046000004 0.66800004 2565673
-0.22850001 0.047000002 0.66700006 986127
-0.10200001 0.047000002 0.66900003 2170405
-0.24000001 0.051000003 0.66500002 1183763
-0.22600001 0.054000001 0.66900003 920591
-0.101 0.052000001 0.66600001 2170146
-0.080000006 0.050000001 0.66700006 2953498
-0.093000002 0.058000002 0.66700006 2038047
-0.077000007 0.055000003 0.66600001 3412505
-0.072999999 0.058000002 0.66750002 3805466
-0.24200003 0.062000003 0.66800004 1117456
-0.23700002 0.062000003 0.66600001 1182993
-0.21900001 0.062000003 0.66500002 986384
-0.14700001 0.063000001 0.66866666 7410976
-0.14300001 0.0625 0.66750002 6689821
-0.139 0.063000001 0.66866666 4788508
-0.088000007 0.063000001 0.66900003 6102310
-0.072000004 0.061500002 0.66750002 4397602
-0.25100002 0.069000006 0.66900003 2625299
-0.24700001 0.067000002 0.66850007 1775386
-0.24250001 0.066750005 0.66800004 1643543
-0.23700002 0.066500008 0.66600001 1511959
-0.21700001 0.065000005 0.66700006 921104
-0.15200001 0.068333335 0.66833335 7870754
-0.14650001 0.067500003 0.66600001 7280161
-0.142 0.067500003 0.66550004 6099999
-0.13875 0.067750007 0.66750002 4329753
-0.085000001 0.067500003 0.66750002 6493982
-0.067500003 0.067000002 0.66700006 4924717
-0.042333335 0.068000004 0.66866666 5576227
-0.037 0.068000004 0.66800004 4985889
-0.033 0.068000004 0.66700006 4592158
-0.0275 0.068000004 0.66600001 4395549
-0.022500001 0.068000004 0.66700006 3936796
-0.017000001 0.068000004 0.66700006 3608601
-0.011500001 0.068000004 0.66800004 3543067
-0.0065000001 0.068000004 0.66900003 3477529
-0.25400001 0.074000001 0.66900003 4985625
-0.24849999 0.072500005 0.66650003 2758426
-0.24300002 0.072000004 0.66666669 1906974
-0.23800002 0.073000006 0.66600001 1972511
-0.21350002 0.071500003 0.66650003 1249556
-0.15200001 0.072666667 0.66633338 8132900
-0.148 0.072000004 0.66500002 7804707
-0.13800001 0.072666667 0.66633338 4067609
-0.086000003 0.071000002 0.66900003 7606813
-0.082000002 0.074000001 0.66500002 7804707
-0.0020000001 0.072000004 0.66600001 3608858
0 0.072500005 0.66900003 3477272
-0.25300002 0.077000007 0.66800004 6361623
-0.2475 0.076500006 0.66500002 3151387
-0.24300002 0.076000005 0.66500002 2104865
-0.23850001 0.076000005 0.66500002 2169890
-0.21200001 0.076000005 0.66800004 1249815
-0.16000001 0.078000002 0.66900003 8132644
-0.15700001 0.076000005 0.66800004 8526373
-0.15400001 0.076000005 0.66600001 8263971
-0.13600001 0.077000007 0.66750002 3870489
-0.083000004 0.077500001 0.66800004 7739169
-0.0020000001 0.077500001 0.66600001 3150105
0 0.076000005 0.66900003 3149592
-0.25300002 0.081 0.66700006 7278868
-0.20700002 0.082500003 0.66700006 1052434
-0.20300001 0.084000006 0.66900003 986643
-0.2 0.084000006 0.66900003 789518
-0.17200001 0.083000004 0.66900003 1118481
-0.16750002 0.083000004 0.66900003 5313821
-0.162 0.081333339 0.66833335 7870242
-0.15733333 0.08200001 0.6656667 8329765
-0.13566667 0.081000008 0.66700006 3804952
-0.080000006 0.082000002 0.66700006 7016737
-0.077000007 0.084000006 0.66600001 2496541
-0.0020000001 0.082500003 0.66750002 3149848
-0.25300002 0.086500004 0.66550004 8526109
-0.20250002 0.088 0.66600001 1183251
-0.19850001 0.088000007 0.667 986384
-0.19300002 0.088000007 0.66850007 1117713
-0.18800001 0.088333331 0.66866666 1380113
-0.18300001 0.089000002 0.66900003 1511443
-0.1785 0.087499999 0.66875005 1380114
-0.17250001 0.087500006 0.66825002 1773330
-0.16850001 0.087500006 0.66750002 5444382
-0.16300002 0.086999997 0.66660005 7476768
-0.15900001 0.088000007 0.66500002 8461609
-0.13500001 0.085000001 0.66700006 3804952
-0.134 0.088000007 0.66600001 3739159
-0.078000002 0.087000005 0.66900003 2234141
-0.074000001 0.087000005 0.66500002 1709591
-0.0050000004 0.088 0.66600001 2429979
-0.25300002 0.091000006 0.66500002 9050655
-0.19800001 0.092000008 0.66550004 3411736
-0.19250001 0.092000008 0.66700006 3936022
-0.1875 0.092000008 0.66800004 4395031
-0.18300001 0.092000008 0.66800004 4657688
-0.1785 0.09300001 0.66725004 5378587
-0.17250001 0.092750005 0.66649997 5837597
-0.16800001 0.092500001 0.66650003 6690333
-0.164 0.092000008 0.66533333 7542304
-0.13500001 0.091000006 0.66600001 3739159
-0.13266666 0.092666663 0.66766673 3739160
-0.075000003 0.090000004 0.66900003 1644314
-0.072000004 0.093000002 0.66700006 1578007
-0.0050000004 0.092000008 0.66700006 2298648
-0.19700001 0.095000006 0.66500002 4001559
-0.19200002 0.095666669 0.6656667 4067352
-0.18733335 0.095666669 0.66633338 4526364
-0.18366669 0.096333332 0.66633338 4919323
-0.1785 0.097000003 0.66550004 5443868
-0.17250001 0.097000003 0.66500002 5640731
-0.16800001 0.097000003 0.66500002 6952736
-0.132 0.097500004 0.66750002 3805210
-0.072000004 0.097000003 0.66900003 1578263
-0.069000006 0.098000005 0.66500002 1643544
-0.0050000004 0.096500009 0.66700006 2298135
-0.13100001 0.10300001 0.66750002 3936539
-0.10200001 0.104 0.66900003 7739943
-0.098499998 0.104 0.66900003 6887458
-0.094000004 0.104 0.66900003 6232612
-0.072000004 0.10250001 0.66900003 1906459
-0.069000006 0.10200001 0.66600001 1906202
-0.0050000004 0.1015 0.66650003 3084825
-0.13100001 0.10700001 0.66650003 4002332
-0.127 0.10700001 0.66900003 4133918
-0.12300001 0.10700001 0.66900003 4461596
-0.10300001 0.10766667 0.66800004 7805735
-0.097750001 0.10775001 0.66624999 7412004
-0.092500001 0.10775 0.66675001 6428704
-0.087666668 0.10833334 0.66800004 5183006
-0.083000004 0.109 0.66900003 4330267
-0.072000004 0.1075 0.66900003 6624801
-0.069000006 0.1075 0.66700006 6428192
-0.0050000004 0.10700001 0.66550004 3543581
-0.0020000001 0.109 0.66900003 3609375
-0.13100001 0.11000001 0.66600001 3936539
-0.12766667 0.11166667 0.66700006 4002588
-0.12300001 0.11125001 0.66800004 4461853
-0.118 0.11200001 0.66866666 5773089
-0.112 0.11300001 0.66900003 7346467
-0.108 0.111 0.66850007 7805990
-0.104 0.11133333 0.667 7871784
-0.099000007 0.11300001 0.66500002 7740198
-0.087000005 0.112 0.66550004 5511202
-0.081750005 0.11300001 0.66750002 4198939
-0.072000004 0.112 0.66900003 7215909
-0.068666667 0.11333334 0.66633338 7149347
-0.0020000001 0.11250001 0.66650003 3674397
-0.12766667 0.116 0.66533333 4133918
-0.1225 0.11650001 0.66650003 4396318
-0.11750001 0.11650001 0.66750002 5707296
-0.112 0.11650001 0.66775 7084067
-0.108 0.11650001 0.66750002 7740197
-0.1035 0.116 0.66600001 7937321
-0.080000006 0.11700001 0.66600001 4067868
-0.076499999 0.116 0.66825002 4526875
-0.072000004 0.116 0.66850007 6494499
-0.067999996 0.11766667 0.66566664 7280677
-0.0020000001 0.116 0.66500002 3739678
0 0.11700001 0.66900003 3739678
-0.259 0.123 0.66900003 10101032
-0.1225 0.12 0.66500002 4527646
-0.11725 0.1215 0.66549999 5707294
-0.11150001 0.12175 0.66650003 6625056
-0.108 0.1215 0.66650003 7477025
-0.104 0.121 0.66533333 7805220
-0.076499999 0.12100001 0.66600001 4461596
-0.072000004 0.12100001 0.66650003 5576479
-0.068666667 0.12133334 0.6656667 7018534
0 0.12100001 0.66750002 3674395
-0.25800002 0.12650001 0.66700006 9969960
-0.11000001 0.126 0.66500002 6821921
-0.108 0.126 0.66500002 7280673
-0.075000003 0.125 0.66500002 4723998
-0.072000004 0.12650001 0.66500002 5117472
-0.068000004 0.12650001 0.66500002 7084066
0 0.126 0.66600001 3608601
-0.257 0.13100001 0.66500002 9707303
0 0.13000001 0.66500002 3739932
0.003 0.13750002 0.66850007 3478043
0.003 0.14300001 0.66750002 3412507
0.003 0.148 0.66600001 3347229
0.003 0.15200001 0.66500002 3543067
0.003 0.15650001 0.66500002 3412509
0.003 0.16250001 0.66650003 3477530
0.003 0.16700001 0.66900003 3739159
0 0.177 0.66500002 3215898
0 0.18100001 0.66700006 3150103
-0.26250002 0.19750002 0.66800004 8986917
-0.003 0.1965 0.66750002 3150104
0.0070000002 0.21250001 0.66750002 2168605
0.011000001 0.21200001 0.66500002 2038303
0.028000001 0.22200002 0.66900003 1644061
-0.26500002 0.22800002 0.66800004 8987173
0.014 0.22800002 0.66900003 3086109
0.022000002 0.22500001 0.66900003 1839640
-0.264 0.23200001 0.66500002 8921380
0.003 0.23 0.66700006 3216670
-0.29100001 0.24000001 0.66500002 3486778
-0.27000001 0.24900001 0.66800004 8068122
-0.27800003 0.259 0.66900003 8927292
-0.27400002 0.25500003 0.66800004 8199963
-0.26000002 0.27900001 0.66700006 1445906
-0.25300002 0.28100002 0.66500002 8950431
-0.24700001 0.28400001 0.66600001 11778232
-0.245 0.28800002 0.66700006 11448758
-0.245 0.292 0.66650003 11383994
0 0.294 0.66700006 1910341
-0.24900001 0.29500002 0.66900003 11383743
-0.18300001 0.0070000002 0.67400002 11707045
-0.1785 0.0070000002 0.67300004 12430767
-0.17250001 0.0070000002 0.67150003 11180446
-0.16700001 0.0070000002 0.671 10851742
-0.16150001 0.0070000002 0.671 9931155
-0.15700001 0.0070000002 0.67200005 9405068
-0.15300001 0.0070000002 0.67200005 8155774
-0.14750001 0.0070000002 0.67200005 9799826
-0.142 0.0070000002 0.67250001 10326171
-0.1365 0.0070000002 0.67300004 8615042
-0.133 0.0070000002 0.67400002 8548993
-0.192 0.013 0.67400002 12693168
-0.18800001 0.011000001 0.67266673 12364462
-0.18333334 0.012000001 0.67066669 12430254
-0.178 0.010000001 0.67000002 11837861
-0.167 0.0115 0.67100006 10062221
-0.16150001 0.010000001 0.67250001 9799054
-0.15800001 0.010000001 0.67300004 8483966
-0.1525 0.010000001 0.671 9602449
-0.14750001 0.013 0.67200005 9338505
-0.132 0.010000001 0.67000002 8220801
-0.1275 0.010000001 0.67050004 8550023
-0.12200001 0.010666667 0.67133331 8352387
-0.11766667 0.010666667 0.67233342 10456730
-0.11275001 0.011500001 0.67175001 10785435
-0.10700001 0.012 0.67200005 9602189
-0.10350001 0.012 0.67350006 5327185
-0.192 0.0165 0.67300004 5063237
-0.18850002 0.0165 0.67150003 3484462
-0.18433334 0.017000001 0.67066669 1839638
-0.1785 0.018000001 0.67050004 1246989
-0.16850001 0.0165 0.67200005 1444882
-0.141 0.015000001 0.67200005 7826294
-0.13800001 0.015000001 0.671 8286847
-0.132 0.018000001 0.67300004 8352126
-0.12900001 0.018000001 0.671 8088954
-0.103 0.015000001 0.67000002 2170403
-0.097000003 0.016000001 0.671 1841696
-0.093500003 0.0165 0.67200005 1776160
-0.086000003 0.015000001 0.67400002 1578783
-0.082666673 0.018000001 0.67166668 1710369
-0.17500001 0.021000002 0.67300004 6233381
-0.1715 0.022500001 0.67250001 11153205
-0.16900001 0.024 0.67300004 10627636
-0.13000001 0.021000002 0.67400002 8220023
-0.127 0.021000002 0.67200005 8877953
-0.122 0.021666668 0.67166668 8220537
-0.11766667 0.022000002 0.67166668 9009539
-0.11266667 0.022000002 0.67033339 8089205
-0.10700001 0.023000002 0.67000002 6182234
-0.10350001 0.023000002 0.67150003 1973537
-0.097333334 0.022000002 0.67199999 1710110
-0.080000006 0.021500003 0.67050004 1512731
-0.16100001 0.026000001 0.67400002 4789017
-0.15700001 0.029000001 0.67000002 4460055
-0.11000001 0.026000001 0.67400002 5918805
-0.080000006 0.026000001 0.67200005 2038819
-0.16700001 0.033 0.67200005 2364954
-0.16150001 0.034000002 0.671 1248270
-0.15800001 0.034000002 0.67300004 1117198
-0.155 0.032000002 0.67400002 1181968
-0.083000004 0.031000001 0.671 1710367
-0.097000003 0.039000001 0.67400002 1775650
-0.23 0.043000001 0.67300004 1052178
-0.24200001 0.049000002 0.671 2105377
-0.082000002 0.046000004 0.67250001 4199457
-0.077000007 0.053000003 0.67000002 3936796
-0.245 0.058000002 0.67200005 4539717
-0.22400001 0.057000004 0.67200005 920592
-0.15200001 0.059000004 0.67300004 7411489
-0.14733334 0.058000002 0.67199999 7410975
-0.14266668 0.057 0.67133337 6690078
-0.1374 0.057600003 0.67200005 4264217
-0.098000005 0.056500003 0.67200005 1841180
-0.075000003 0.055000003 0.671 4067866
-0.072000004 0.056000002 0.67400002 3936795
-0.06825 0.056500003 0.67225003 4526873
-0.063333333 0.056000005 0.67366672 5773602
-0.252 0.062000003 0.67300004 2893095
-0.24800001 0.061500002 0.671 1577492
-0.245 0.060000002 0.67000002 1315090
-0.22200002 0.060000002 0.67300004 920332
-0.21900001 0.063000001 0.67300004 1117454
-0.15800001 0.062000003 0.67400002 7214109
-0.15350001 0.063000001 0.67175007 7477025
-0.149 0.061000004 0.67000002 7280928
-0.13599999 0.062000006 0.67133331 3805208
-0.091000006 0.061000004 0.67000002 2887701
-0.068000004 0.062250003 0.67175007 3875368
-0.25500003 0.067500003 0.67300004 4526872
-0.25100002 0.066 0.67000002 2953237
-0.215 0.068000004 0.671 1052177
-0.16100001 0.067000002 0.67400002 7674403
-0.15800001 0.066 0.67350006 7608610
-0.155 0.067000002 0.671 7608611
-0.13500001 0.068000004 0.671 3673627
-0.089000002 0.067500003 0.67350006 6559263
-0.067000002 0.066 0.67000002 3355961
-0.063000001 0.068000004 0.67166668 5449778
-0.057500005 0.069000006 0.67200005 6366510
-0.052000001 0.069000006 0.671 5906474
-0.048 0.068000004 0.67000002 5971239
-0.0020000001 0.068000004 0.67000002 3608344
0 0.069000006 0.67200005 3542808
-0.25400001 0.072000004 0.67000002 4461083
-0.21200001 0.074000001 0.671 1184276
-0.16700001 0.073000006 0.67400002 6886942
-0.16250001 0.071500003 0.67300004 7739427
-0.1575 0.071000002 0.67050004 8198950
-0.13500001 0.072000004 0.67000002 3738908
-0.133 0.072000004 0.67400002 3607831
-0.086000003 0.074000001 0.67000002 7673380
0.003 0.072500005 0.67300004 3411736
-0.20800002 0.078500003 0.67300004 1118228
-0.18100001 0.079000004 0.67400002 1250069
-0.17650001 0.079000004 0.67300004 1249556
-0.17250001 0.077000007 0.67300004 1118227
-0.16800001 0.077000007 0.67200005 4855582
-0.16233335 0.075999998 0.67066669 7738912
-0.13500001 0.075000003 0.67000002 3804701
-0.133 0.076499999 0.67300004 3542808
-0.086000003 0.077000007 0.67200005 7738917
0.0015 0.078000009 0.67200005 3149848
-0.20700002 0.082000002 0.671 1117972
-0.20250002 0.082000002 0.67150003 855055
-0.19800001 0.083000004 0.671 789775
-0.19280002 0.082800008 0.67140007 921103
-0.18733335 0.083333336 0.67166668 855568
-0.18300001 0.082000002 0.67199999 1118482
-0.1772 0.082800008 0.67040002 1117968
-0.17200001 0.081 0.67000002 1380115
-0.16750002 0.081 0.67000002 5116956
-0.133 0.081500009 0.67150003 3608088
-0.086000003 0.080000006 0.67400002 7870756
-0.083000004 0.082000002 0.67200005 7608097
0.0020000001 0.081333332 0.67300004 3149847
-0.259 0.087500006 0.67350006 9642023
-0.186 0.087000005 0.67000002 1052177
-0.18300001 0.087000005 0.67000002 1118227
-0.13150001 0.087250002 0.67200005 3673880
-0.081666671 0.086000003 0.67233342 6689053
-0.0020000001 0.087000005 0.67000002 3149592
0 0.086500004 0.67250001 3149591
-0.259 0.092000008 0.67300004 10036011
-0.13000001 0.092500001 0.67250001 3805209
-0.12800001 0.09300001 0.67350006 4067611
-0.1235 0.094000004 0.67400002 4264730
-0.077 0.092666663 0.67266673 1906457
-0.0020000001 0.091499999 0.67150003 3149848
-0.259 0.096000001 0.67200005 10101804
-0.13000001 0.098000005 0.67050004 3870746
-0.12800001 0.097000003 0.67300004 4068124
-0.1235 0.098000005 0.67250007 4330011
-0.11800001 0.097666673 0.67366672 6034976
-0.11250001 0.099000007 0.67300004 7478056
-0.10733334 0.097666673 0.67366672 7608871
-0.10366667 0.098333336 0.67233342 7215397
-0.097999997 0.098500006 0.67325002 6100256
-0.075999998 0.098000012 0.67300004 2102810
-0.0020000001 0.097500004 0.67250001 3018776
-0.25850001 0.1015 0.671 9707560
-0.1275 0.101 0.67150003 4067868
-0.1235 0.10200001 0.671 4264732
-0.118 0.10133334 0.67233342 5838626
-0.11250001 0.10200001 0.67200005 7609385
-0.108 0.10200001 0.67200005 7871529
-0.10400001 0.10266668 0.67033339 7674664
-0.098499998 0.10200001 0.67050004 6493986
-0.092333339 0.10266667 0.671 5772318
-0.088 0.10266668 0.67300004 5247515
-0.081 0.103 0.67350006 5838623
-0.076499999 0.10300001 0.67275 3348508
-0.0020000001 0.10250001 0.67150003 3216156
-0.259 0.1075 0.671 9642280
-0.127 0.105 0.67000002 4133918
-0.12300001 0.105 0.67000002 4396316
-0.11750001 0.10600001 0.67050004 6166561
-0.11225 0.10600001 0.67050004 7740199
-0.108 0.10600001 0.67050004 8133929
-0.086000003 0.10600001 0.67150003 5050651
-0.082249999 0.107 0.67150009 4722457
-0.075999998 0.10766667 0.671 6298147
-0.0020000001 0.10600001 0.67000002 3413021
0 0.10800001 0.67350006 3412509
-0.259 0.11300001 0.67050004 9511207
-0.116 0.11000001 0.67000002 6560290
-0.11250001 0.11000001 0.67000002 7477797
-0.077 0.11133334 0.67033339 5050906
0 0.11300001 0.67050004 3608348
-0.259 0.11700001 0.67000002 9642534
0.003 0.11800001 0.67400002 3674655
-0.259 0.12 0.67000002 9838373
0.003 0.1215 0.67250001 3477531
0.003 0.127 0.67150003 3477531
0.003 0.13250001 0.67050004 3477531
-0.264 0.147 0.67300004 10101543
-0.264 0.15100001 0.67150003 10036263
-0.264 0.15650001 0.67050004 10363691
-0.264 0.16250001 0.67000002 10102061
-0.26500002 0.16700001 0.67000002 9773097
-0.26500002 0.1715 0.67050004 9904679
0.003 0.17200001 0.67250001 3084312
-0.266 0.17600001 0.67200005 9905704
-0.26700002 0.18150002 0.67400002 9511462
0 0.18650001 0.67250001 3085081
-0.264 0.20300001 0.671 9183016
-0.003 0.20200001 0.67200005 2953495
-0.26500002 0.20700002 0.67300004 8658209
-0.003 0.20650001 0.67200005 2822681
-0.266 0.21150002 0.67400002 9119273
0.025 0.21400002 0.67300004 1448735
-0.26700002 0.21900001 0.67400002 9250090
-0.266 0.22300002 0.67200005 9446948
0.0060000001 0.23200001 0.67400002 2495515
-0.0050000004 0.23800001 0.67400002 1248022
-0.27150002 0.24600001 0.67250001 8331552
-0.27600002 0.25400001 0.67300004 8594210
0 0.25 0.67200005 1182998
-0.28 0.25800002 0.67400002 7157051
-0.28250003 0.26250002 0.67200005 2957090
0 0.264 0.67000002 1052186
0 0.26900002 0.67300004 1119268
-0.26000002 0.28500003 0.67400002 6713991
-0.252 0.287 0.671 11187133
-0.24950001 0.29150003 0.671 11843774
0 0.29150003 0.67150003 2239823
-0.25400001 0.29700002 0.67300004 8753316
0.003 0.301 0.671 1712706
0.0060000001 0.30400002 0.67400002 1647169
-0.18800001 0.0040000002 0.67900002 11049117
-0.18300001 0.0040000002 0.67800003 11707045
-0.17700002 0.0040000002 0.67700005 11970219
-0.17300001 0.0040000002 0.67700005 10127761
-0.16850001 0.0040000002 0.67700005 10588314
-0.163 0.0040000002 0.67750001 9799313
-0.1575 0.0040000002 0.67800003 9010828
-0.15150002 0.0040000002 0.67900002 8681348
-0.148 0.0040000002 0.67900002 10391193
-0.19150001 0.0070000002 0.67800003 10982809
-0.18700001 0.0070000002 0.67600006 11312287
-0.13000001 0.0070000002 0.67500001 8877958
-0.127 0.0070000002 0.67600006 8680323
-0.1235 0.0070000002 0.67600006 8877445
-0.118 0.0070000002 0.67750001 9996693
-0.11400001 0.0070000002 0.67900002 9667983
-0.19700001 0.012000001 0.67799997 12692910
-0.193 0.010000001 0.67600006 12101031
-0.163 0.013 0.67750001 9076098
-0.156 0.013 0.67800003 9733778
-0.15300001 0.013 0.67600006 8878724
-0.11100001 0.010000001 0.67500001 9930382
-0.108 0.010000001 0.67600006 9667984
-0.104 0.010000001 0.67800003 6576998
-0.098499998 0.0125 0.676 1512990
-0.19800001 0.017333334 0.67766666 5457735
-0.19500001 0.015000001 0.67500001 10917785
-0.16700001 0.015000001 0.67700005 1576209
-0.147 0.015000001 0.67700005 9930384
-0.14400001 0.015000001 0.67500001 9010310
-0.13750002 0.018000001 0.67650002 8615553
-0.091000006 0.015000001 0.67500001 1578781
-0.089000002 0.015000001 0.67500001 1578782
-0.082000002 0.015000001 0.676 1578527
-0.076499999 0.0165 0.67650008 2960183
-0.073000006 0.0165 0.67750001 4801364
-0.068499997 0.0165 0.67875004 5524315
-0.19150001 0.021000002 0.67700005 1313552
-0.18700001 0.021000002 0.67800003 1247759
-0.18350001 0.021000002 0.67900002 1314063
-0.17900001 0.021000002 0.67700005 1182734
-0.16800001 0.022500001 0.67550004 5641244
-0.133 0.021000002 0.67800003 7627629
-0.127 0.023000002 0.67600006 2957864
-0.12400001 0.023000002 0.67500001 5655379
-0.076750003 0.022000002 0.67700005 2697007
-0.073000006 0.021000002 0.67800003 4341324
-0.07 0.021000002 0.67900002 4012102
-0.17250001 0.0275 0.676 7018528
-0.156 0.029000001 0.67800003 3214356
-0.11750001 0.026000001 0.67700005 2299678
-0.11300001 0.026000001 0.67500001 4602945
-0.108 0.026000001 0.67500001 3813942
-0.105 0.026000001 0.67600006 1644316
-0.081 0.029000001 0.67800003 1775647
-0.083000004 0.034000002 0.67600006 1380116
-0.156 0.035 0.67800003 920333
-0.084000006 0.037 0.67900002 2166805
-0.1 0.042000003 0.67700005 1973283
-0.083500005 0.041000001 0.67700005 4133662
-0.10300001 0.045000002 0.67800003 2104612
-0.081 0.045000002 0.67900002 4396577
-0.047000002 0.048 0.67800003 3086880
-0.041500002 0.046250001 0.67799997 4331296
-0.038000003 0.045000002 0.67800003 5576737
-0.035 0.045000002 0.67800003 5510689
-0.22900002 0.052000001 0.67800003 985616
-0.142 0.054000001 0.67900002 5509913
-0.13800001 0.054000001 0.67900002 3871512
-0.10600001 0.052000001 0.67700005 2170402
-0.076333337 0.050999999 0.67633337 4395292
-0.073000006 0.053000003 0.67800003 4329756
-0.067666672 0.053000003 0.67866677 4460313
-0.062000003 0.053000003 0.67700005 4919576
-0.057500005 0.053000003 0.67600006 5641759
-0.052500002 0.0515 0.67800003 5313823
-0.047000002 0.050000001 0.67850006 5577253
-0.25400001 0.058000002 0.67900002 1775898
-0.248 0.056500003 0.67550004 2105121
-0.162 0.059000004 0.67700005 6099996
-0.15700001 0.058333337 0.67666674 6755613
-0.15150002 0.056000002 0.67550004 7214109
-0.133 0.057500005 0.67650008 3018775
-0.10300001 0.056000002 0.67500001 2039071
-0.1 0.059000004 0.67800003 1643546
-0.062000003 0.058000002 0.67500001 3871258
-0.058000002 0.056666672 0.67633337 4593181
-0.054000001 0.056000002 0.67900002 2955036
-0.25650001 0.0625 0.67700005 3483947
-0.171 0.062000003 0.67900002 6165272
-0.16800001 0.062000003 0.67800003 6558745
-0.16400002 0.06133334 0.67733335 6821406
-0.13233334 0.062666669 0.67666674 3410712
-0.095000006 0.061000004 0.67600006 4132886
-0.092000008 0.064000003 0.67600006 6167847
-0.065000005 0.0625 0.67700005 3222065
-0.062000003 0.061000004 0.67800003 2829106
-0.21700001 0.066 0.67700005 986384
-0.17200001 0.067000002 0.67833334 3937818
-0.16800001 0.066500008 0.67700005 6821408
-0.16333334 0.066000007 0.67600006 7477025
-0.13166668 0.066333331 0.67766666 3345431
-0.092000008 0.067000002 0.67900002 4331289
-0.062000003 0.067000002 0.67700005 4406086
-0.059000004 0.067000002 0.67900002 4801350
-0.046000004 0.067000002 0.67900002 3946821
-0.041500002 0.067000002 0.67900002 3947079
-0.038000003 0.067000002 0.67900002 4275274
-0.033500001 0.067000002 0.67800003 4341836
-0.028000001 0.067000002 0.67800003 5192522
-0.022500001 0.066 0.67800003 4597814
-0.017500002 0.066 0.67800003 3478044
-0.012 0.066 0.67750001 3411996
-0.0065000001 0.066 0.67700005 3346716
-0.0020000001 0.066 0.67800003 3412253
0.0015 0.067500003 0.67650002 3412250
0.0060000001 0.069000006 0.67900002 3477528
-0.26000002 0.071500003 0.67850006 8328476
-0.21250001 0.072500005 0.676 1118484
-0.20900001 0.074000001 0.67900002 1250071
-0.18300001 0.074000001 0.67900002 1117970
-0.17766666 0.073000006 0.67833334 1314577
-0.1735 0.072000004 0.67700005 1249300
-0.16900001 0.071000002 0.67533332 4591638
-0.13166668 0.071000002 0.67700005 3608089
-0.089000002 0.072000004 0.67500001 7935779
0.0060000001 0.072000004 0.67800003 3477274
-0.26000002 0.076499999 0.67650008 8657440
-0.20650001 0.077000007 0.67700005 986897
-0.20250002 0.078000009 0.67650002 723981
-0.19800001 0.078000002 0.67675006 855310
-0.19225001 0.078000009 0.67700005 921104
-0.1875 0.078000009 0.67650002 921104
-0.18400002 0.077 0.67666668 1052690
-0.17750001 0.076000005 0.67550004 1183762
-0.13100001 0.076499999 0.67650008 3739419
-0.12800001 0.077000007 0.67900002 3871004
-0.089000002 0.076499999 0.67650008 7673380
0.0060000001 0.076000005 0.67800003 3346201
-0.259 0.082500003 0.67500001 9182501
-0.13100001 0.082000002 0.67500001 3608344
-0.127 0.082500003 0.67800003 3936538
-0.123 0.084000006 0.67900002 4198682
-0.12 0.084000006 0.67900002 4853784
-0.089000009 0.082333334 0.67799997 7279133
0.0060000001 0.081500009 0.67900002 3215384
-0.12800001 0.087500006 0.67550004 3805467
-0.124 0.087499999 0.67700005 4067867
-0.11850001 0.087750003 0.67799997 5444638
-0.1135 0.087500006 0.6785 6952736
-0.1075 0.089000002 0.67800003 6624545
-0.10250001 0.089000002 0.67900002 5116442
-0.087000005 0.087500006 0.67850006 7213853
-0.084000006 0.088000007 0.67600006 7018272
0.003 0.086500004 0.67650008 3149592
-0.124 0.092000008 0.67550004 4067866
-0.11850001 0.09300001 0.67575002 5707550
-0.11275001 0.09300001 0.67650008 7346211
-0.1075 0.09300001 0.67625004 7149601
-0.10233334 0.092666678 0.67633337 5968925
-0.097200006 0.093200013 0.67740005 5116186
-0.092000008 0.094000004 0.67800003 5247514
-0.088500008 0.09300001 0.67875004 6755870
-0.082500003 0.092500001 0.67650002 6361883
0.001 0.091666676 0.67633337 3018262
-0.11250001 0.097000003 0.67500001 7281445
-0.096500009 0.097000003 0.67550004 5509660
-0.092000008 0.098000005 0.676 5444122
-0.088000007 0.097666673 0.67700005 5771548
-0.082500003 0.098000005 0.67600006 6690591
-0.078000002 0.096000001 0.67500001 1775380
0 0.097500004 0.67700005 3084311
-0.089000002 0.1 0.67600006 5378330
-0.084000006 0.10200001 0.67500001 5837085
0 0.103 0.67550004 3281691
0.003 0.108 0.67900002 3412765
0.003 0.11150001 0.67700005 3609116
0.003 0.115 0.67500001 3673885
-0.266 0.133 0.67900002 9838889
-0.266 0.13750002 0.67750001 10035754
-0.26500002 0.14300001 0.67550004 10036008
0.0060000001 0.15800001 0.67900002 2887705
0.0060000001 0.16100001 0.67900002 2822427
0.003 0.178 0.67800003 2822684
-0.26800001 0.1875 0.67550004 9708071
-0.26800001 0.192 0.67600006 9249575
0 0.192 0.67700005 2495260
-0.27000001 0.19900002 0.67800003 9249832
-0.26900002 0.19600001 0.67700005 9249322
-0.27000001 0.20300001 0.67900002 9315880
0 0.21300001 0.67800003 1446426
-0.26700002 0.21600001 0.67500001 8988967
-0.27200001 0.22700001 0.67900002 10630199
-0.29700002 0.23100001 0.67500001 3356221
-0.27200001 0.2315 0.67750001 10433845
-0.27200001 0.23750001 0.67650008 9974065
-0.003 0.23600002 0.67700005 1445654
-0.27200001 0.24200001 0.67500001 9381932
-0.0050000004 0.24200001 0.67500001 1511196
-0.27750003 0.25099999 0.67750001 8990000
-0.28100002 0.25600001 0.67800003 4733505
-0.28650004 0.26050001 0.67850006 3289659
0 0.273 0.67600006 1449013
0 0.27700001 0.67800003 1580606
0 0.28200001 0.67900002 1712193
-0.26800001 0.28500003 0.67900002 1510931
0 0.28750002 0.67650008 1778244
-0.25700003 0.29100001 0.67750001 10266292
-0.25500003 0.29500002 0.67600006 10069686
0.003 0.29699999 0.67650002 1910087
0.0060000001 0.29900002 0.67800003 1909825
-0.26000002 0.30000001 0.67900002 6255502
0.0060000001 0.30200002 0.67600006 1712962
0.0090000005 0.30600002 0.67800003 1712446
-0.1875 0.0020000001 0.68350005 11049117
-0.18300001 0.0020000001 0.68300003 11706791
-0.1785 0.0020000001 0.68350005 11575718
-0.17400001 0.0020000001 0.68400002 10456726
-0.14500001 0.0040000002 0.68000001 9996437
-0.142 0.0040000002 0.68000001 9404557
-0.13850001 0.0040000002 0.68100005 9009288
-0.13250001 0.0040000002 0.68200004 8877445
-0.1275 0.0040000002 0.68300003 9009288
-0.123 0.0040000002 0.68300003 9009288
-0.12 0.0040000002 0.68400002 9010058
-0.19800001 0.0070000002 0.68300003 12101033
-0.19300002 0.0050000004 0.68200004 11312546
-0.112 0.0070000002 0.68100005 8878724
-0.10800001 0.0070000002 0.68300003 8023931
-0.20200001 0.011500001 0.68300003 13219253
-0.15900001 0.013 0.68000001 9339274
-0.101 0.010000001 0.68100005 1841956
-0.096500009 0.011500001 0.68200004 1710111
-0.093000002 0.013 0.68300003 1578781
-0.088500008 0.013 0.68150008 1644575
-0.082333334 0.012000001 0.68199998 1710112
-0.077500001 0.013 0.68050003 2236713
-0.073000006 0.013 0.68100005 5328220
-0.067000002 0.012250001 0.68175 8812936
-0.062000003 0.011500001 0.68300003 7431027
-0.059000004 0.012000001 0.68366671 5984094
-0.2035 0.017000001 0.68200004 9075578
-0.16900001 0.018000001 0.68300003 1247502
-0.15100001 0.015000001 0.68100005 9076103
-0.142 0.018000001 0.68100005 7826035
-0.065000005 0.0165 0.68050003 5326935
-0.062000003 0.0165 0.68200004 4931664
-0.060000002 0.015000001 0.68300003 5588824
-0.19700001 0.021000002 0.68000001 1578519
-0.177 0.024 0.68100005 4790816
-0.16900001 0.021000002 0.68300003 1182991
-0.13700001 0.021000002 0.68400002 5456459
-0.13100001 0.024 0.68200004 1773589
-0.072000004 0.023000002 0.68200004 4011583
-0.066500008 0.021000002 0.6825 4208710
-0.1275 0.026000001 0.6825 1444112
-0.123 0.026000001 0.68000001 1378576
-0.11800001 0.029000001 0.68400002 1314322
-0.1135 0.029000001 0.68200004 1314322
-0.109 0.029000001 0.68400002 1380374
-0.10200001 0.026000001 0.68099999 1644830
-0.098000005 0.026000001 0.68000001 1907233
-0.077500001 0.026000001 0.6825 2498601
-0.17400001 0.032000002 0.68200004 1314832
-0.15400001 0.032000002 0.68300003 1051409
-0.082000002 0.032000002 0.68400002 1707800
-0.171 0.035 0.68000001 1709078
-0.098000005 0.037 0.68300003 1776160
-0.23300001 0.041000001 0.68000001 1117200
-0.082000002 0.043000001 0.68400002 4331297
-0.046000004 0.043000001 0.68400002 2827308
-0.041333336 0.041333336 0.68266672 5785425
-0.038000003 0.041000001 0.68150002 4338232
-0.033500001 0.041000001 0.68200004 3217951
-0.030000001 0.042000003 0.68200004 4526876
-0.245 0.047000002 0.68100005 2960687
-0.10600001 0.048 0.68200004 2301477
-0.078000002 0.047000002 0.68233341 4395805
-0.073000006 0.048 0.68400002 4461085
-0.052500002 0.048 0.68300003 2823193
-0.047500003 0.045000002 0.6825 2036762
-0.038000003 0.048 0.68000001 5510689
-0.033000004 0.047000002 0.68233341 4199196
-0.030000001 0.045000002 0.68400002 4658204
-0.24800001 0.053000003 0.68100005 1447447
-0.23100001 0.050000001 0.68300003 985616
-0.14700001 0.054000001 0.68200004 7214625
-0.133 0.054000001 0.6825 2035476
-0.072000004 0.051000003 0.68150008 4460830
-0.066500008 0.051000003 0.68300003 4526107
-0.062000003 0.051000003 0.68200004 4918551
-0.058500003 0.050500002 0.68099999 4526106
-0.047500003 0.053000003 0.68200004 3674906
-0.041500002 0.050500002 0.68150008 4395544
-0.038000003 0.051000003 0.68400002 2496543
-0.259 0.059000004 0.68300003 1117968
-0.252 0.056000002 0.68300003 1249556
-0.16150001 0.057000004 0.68200004 5312018
-0.13150001 0.058000006 0.68099999 2887446
-0.10650001 0.057500005 0.6825 2561560
-0.104 0.059000004 0.68200004 1840148
-0.057000004 0.059000004 0.68000001 2760484
-0.052333336 0.058000002 0.68233329 2498598
-0.049000002 0.056000002 0.68400002 2432550
-0.26200002 0.064000003 0.68300003 3411217
-0.17650001 0.061500002 0.68300003 5444123
-0.17250001 0.061500002 0.68100005 5968924
-0.16800001 0.060000002 0.68000001 6034713
-0.12900001 0.061000004 0.68350005 3345942
-0.101 0.062000003 0.68300003 5968668
-0.096500009 0.063000001 0.68050003 5052446
-0.062000003 0.064000003 0.68100005 3683648
-0.059000004 0.062333334 0.68266672 3420470
-0.26100001 0.067000002 0.68100005 7542299
-0.21400002 0.069000006 0.68200004 1052177
-0.20850001 0.069000006 0.68400002 2888215
-0.20250002 0.069000006 0.68400002 3018515
-0.19750002 0.069000006 0.68400002 3281687
-0.192 0.069000006 0.68300003 3019285
-0.1875 0.069000006 0.6825 2560791
-0.18350002 0.067000002 0.6825 3739928
-0.1785 0.066750005 0.68100005 3674649
-0.17400001 0.065000005 0.68000001 6034204
-0.1275 0.066500008 0.68250006 3673881
-0.097000003 0.066 0.68350005 5181978
-0.057000004 0.067000002 0.68100005 4670279
-0.052500002 0.067000002 0.68050003 4209478
-0.049000002 0.067000002 0.68000001 4012613
0.003 0.067000002 0.68000001 3346716
0.0060000001 0.067000002 0.68300003 3346716
-0.21200001 0.072000004 0.68000001 1249043
-0.20766668 0.072666667 0.68100005 1051920
-0.20266668 0.072666667 0.68133336 1051918
-0.19833334 0.07333333 0.68066669 1051663
-0.1935 0.072500005 0.68099999 1117711
-0.1875 0.072500005 0.68075001 1052176
-0.18300001 0.071000002 0.68100005 1118222
-0.18000001 0.071000002 0.68000001 1184015
-0.1275 0.071500003 0.68150002 3936540
-0.123 0.072333336 0.68366671 4264734
-0.11800001 0.073000006 0.68400002 4986142
-0.096000001 0.071500003 0.68400002 7346209
-0.092000008 0.071500003 0.68000001 7869985
-0.126 0.077000007 0.68050003 4067867
-0.12233334 0.077 0.68166667 4329755
-0.11866667 0.078000002 0.68199998 5182493
-0.113 0.077800006 0.68360007 5772315
-0.096000001 0.077500001 0.68400002 7279135
-0.093000002 0.076499999 0.68100005 7279135
-0.123 0.081 0.68000001 4132890
-0.11866667 0.082000002 0.68033338 5444636
-0.1128 0.082200006 0.68120003 6362653
-0.10766667 0.083000004 0.68199998 5444123
-0.10250001 0.082500003 0.68325007 5181720
-0.097500004 0.082500003 0.68325001 6559264
-0.093000002 0.082500003 0.68200004 7672865
-0.266 0.088000007 0.68400002 10298411
-0.1075 0.086500004 0.68000001 6099997
-0.10250001 0.087000005 0.68100005 5050905
-0.096749999 0.088 0.68100005 5247514
-0.093000002 0.087500006 0.68100005 6821409
-0.090000004 0.087500006 0.68000001 7345697
0.0060000001 0.087500006 0.68150008 3149592
-0.266 0.091499999 0.68300003 10495020
-0.093000002 0.092000008 0.68000001 6099740
