# .PCD v0.7 - Point Cloud Data file format
VERSION 0.7
FIELDS x y z rgb
SIZE 4 4 4 4
TYPE F F F U
COUNT 1 1 1 1
WIDTH 1188
HEIGHT 1
VIEWPOINT 0 0 0 1 0 0 0
POINTS 1188
DATA ascii
-0.045000002 0.012 0.80800003 5066598
-0.041000001 0.012 0.80800003 5198184
-0.038000003 0.012 0.80700004 5000805
-0.035 0.012 0.80700004 5263977
-0.032000002 0.012 0.80700004 5132391
-0.029000001 0.012 0.80600005 5263977
-0.025 0.012 0.80600005 5263978
-0.022000002 0.012 0.80500007 5395565
-0.019000001 0.012 0.80500007 5527150
-0.016000001 0.012 0.80400002 5527408
-0.013 0.012 0.80500007 5724787
-0.0090000005 0.012 0.80400002 5725044
-0.0060000001 0.012 0.80400002 5790837
-0.003 0.012 0.80400002 6185853
0 0.012 0.80400002 6054012
0.003 0.012 0.80500007 6054525
0.0070000002 0.012 0.80600005 5526897
0.010000001 0.012 0.80800003 4540770
0.013 0.012 0.81100005 4277084
0.016000001 0.012 0.81400001 3553359
0.020000001 0.012 0.81800002 2829123
0.023000002 0.012 0.82300001 2697536
0.027000001 0.012 0.82900006 3947858
0.030000001 0.012 0.83300006 4408409
0.033 0.012 0.83500004 3750739
0.037 0.012 0.83700001 4144983
0.040000003 0.012 0.83800006 4408157
0.044000003 0.012 0.83900005 4933731
0.047000002 0.012 0.84000003 5196903
0.050000001 0.012 0.84100002 5065317
0.054000001 0.012 0.84100002 4933731
0.057000004 0.012 0.84200007 4736352
0.061000004 0.012 0.84300005 4538973
0.064000003 0.012 0.84400004 4670559
0.067000002 0.012 0.84400004 4933731
0.071000002 0.012 0.84600002 4802145
0.074000001 0.012 0.84700006 4999524
0.078000002 0.012 0.84900004 4342365
0.082000002 0.012 0.85200006 4276571
0.085000001 0.012 0.85600007 4473180
0.089000002 0.012 0.86000001 4736606
0.093000002 0.013 0.86600006 4473950
0.098000005 0.013 0.87700003 5460327
0.10300001 0.013 0.88800007 5394533
0.108 0.013 0.89700001 4012620
0.112 0.013 0.90400004 5131362
0.32900003 0.035 2.4170001 6580088
0.33800003 0.035 2.4100001 6119277
0.347 0.035 2.4050002 5395553
0.35700002 0.035 2.4050002 4342347
0.36600003 0.035 2.4020002 4013126
0.37500003 0.035 2.4000001 4342348
0.384 0.035 2.3940001 2434351
0.39300001 0.035 2.3920002 2172460
0.40200001 0.035 2.3850002 3158844
0.41100001 0.035 2.3820002 4603978
0.42100003 0.035 2.3800001 4538698
0.43100002 0.035 2.3830001 6118243
0.53000003 0.038000003 2.5760002 4803411
0.54000002 0.038000003 2.5760002 6053479
0.55300003 0.038000003 2.5860002 11184818
0.565 0.038000003 2.5910001 4473934
0.57600003 0.038000003 2.5910001 7302773
0.58900005 0.038000003 2.6040001 9408408
0.60200006 0.038000003 2.6110001 9934240
0.61700004 0.039000001 2.6300001 9737375
0.63200003 0.039000001 2.6450002 9868447
0.51100004 0.030000001 2.066 8487053
0.52200001 0.031000001 2.0760002 8026501
0.53000003 0.030000001 2.0730002 8223879
0.71800005 0.039000001 2.6750002 11382715
0.72800004 0.039000001 2.6700001 11447741
0.74400002 0.040000003 2.684 11185337
0.75800002 0.040000003 2.6940002 10658225
0.77100003 0.040000003 2.7010002 4671832
0.78500003 0.040000003 2.707 7434626
0.79700005 0.040000003 2.7090001 4078922
0.80900002 0.040000003 2.71 10722476
0.82000005 0.040000003 2.7080002 7496819
0.83100003 0.040000003 2.7040002 4799820
0.84100002 0.040000003 2.7 3222841
0.85300004 0.040000003 2.6990001 3616827
0.86300004 0.040000003 2.6950002 6578795
0.87500006 0.040000003 2.6960001 10526888
0.89200002 0.040000003 2.71 10658216
0.90800005 0.041000001 2.7210002 8553095
0.92100006 0.041000001 2.7240002 9210768
-0.21900001 0.017000001 0.90500003 5526625
-0.215 0.017000001 0.90300006 4868185
-0.21100001 0.017000001 0.90100002 4736342
-0.20700002 0.017000001 0.90000004 4670549
-0.20300001 0.017000001 0.89800006 4604756
-0.19900002 0.017000001 0.89800006 4736342
-0.19500001 0.017000001 0.89700001 4407120
-0.19100001 0.017000001 0.89700001 4210252
-0.18800001 0.017000001 0.89700001 3683395
-0.18400002 0.017000001 0.89700001 3025977
-0.18000001 0.017000001 0.89700001 2104873
-0.17600001 0.017000001 0.89700001 1973288
-0.17200001 0.017000001 0.89400005 2368045
-0.16800001 0.017000001 0.88900006 3683394
-0.162 0.016000001 0.88000005 3222843
-0.15700001 0.016000001 0.87200004 3091257
-0.15300001 0.016000001 0.86600006 3288635
-0.148 0.016000001 0.86100006 3486269
-0.14400001 0.016000001 0.85600007 3617855
-0.13900001 0.016000001 0.85000002 4078152
-0.13500001 0.016000001 0.84500003 4275532
-0.13100001 0.016000001 0.84100002 4407377
-0.127 0.015000001 0.83700001 4736857
-0.123 0.015000001 0.83300006 5394787
-0.119 0.015000001 0.83000004 6118510
-0.115 0.015000001 0.82700002 6381427
-0.112 0.015000001 0.82400006 5789804
-0.108 0.015000001 0.82000005 4868959
-0.104 0.015000001 0.81800002 4803166
-0.101 0.015000001 0.81700003 4803424
-0.097000003 0.015000001 0.81600004 4935010
-0.094000004 0.015000001 0.81500006 5198182
-0.091000006 0.015000001 0.81500006 5132389
-0.087000005 0.015000001 0.81400001 5001060
-0.084000006 0.015000001 0.81300002 4869987
-0.081 0.015000001 0.81200004 5198182
-0.077000007 0.015000001 0.81100005 5000803
-0.074000001 0.015000001 0.81100005 5198182
-0.071000002 0.015000001 0.81100005 5066596
-0.067000002 0.015000001 0.81000006 5198439
-0.064000003 0.015000001 0.81000006 4869986
-0.061000004 0.015000001 0.81000006 5198952
-0.058000002 0.015000001 0.80900002 5264745
-0.054000001 0.015000001 0.80800003 5198184
-0.051000003 0.015000001 0.80700004 5198184
-0.048 0.015000001 0.80600005 5066598
-0.045000002 0.015000001 0.80600005 5132391
-0.041000001 0.015000001 0.80500007 5329770
-0.038000003 0.015000001 0.80500007 5329768
-0.035 0.015000001 0.80500007 5132390
-0.032000002 0.015000001 0.80500007 5263977
-0.028000001 0.015000001 0.80400002 5263978
-0.025 0.015000001 0.80400002 5263979
-0.022000002 0.015000001 0.80300003 5263979
-0.019000001 0.015000001 0.80300003 5527151
-0.016000001 0.015000001 0.80300003 5658737
-0.012 0.015000001 0.80300003 5724530
-0.0090000005 0.015000001 0.80300003 5988218
-0.0060000001 0.015000001 0.80300003 6317183
-0.003 0.015000001 0.80300003 6515075
0 0.015000001 0.80300003 6844040
0.003 0.015000001 0.80400002 5660023
0.0070000002 0.015000001 0.80600005 5133418
0.010000001 0.015000001 0.80800003 3948887
0.013 0.015000001 0.81100005 3421773
0.016000001 0.015000001 0.81500006 2894916
0.020000001 0.015000001 0.81900007 2566462
0.023000002 0.015000001 0.82300001 2566207
0.027000001 0.015000001 0.82900006 4605534
0.030000001 0.015000001 0.83200002 5460845
0.033 0.015000001 0.83400005 3027013
0.037 0.015000001 0.83500004 4408155
0.040000003 0.015000001 0.83600003 4605534
0.043000001 0.015000001 0.83700001 4802145
0.047000002 0.015000001 0.83800006 4867938
0.050000001 0.015000001 0.83900005 4867938
0.054000001 0.015000001 0.84000003 5131110
0.057000004 0.015000001 0.84100002 4802145
0.061000004 0.015000001 0.84200007 4867938
0.064000003 0.016000001 0.84300005 4802145
0.067000002 0.016000001 0.84300005 4867938
0.071000002 0.016000001 0.84400004 4867938
0.074000001 0.016000001 0.84600002 4933731
0.078000002 0.016000001 0.84800005 4604766
0.082000002 0.016000001 0.85100001 4407387
0.085000001 0.016000001 0.85500002 4341594
0.089000002 0.016000001 0.86000001 4604766
0.093000002 0.016000001 0.86500007 4407900
0.098000005 0.016000001 0.87500006 4999778
0.10300001 0.016000001 0.88600004 5920878
0.10700001 0.017000001 0.89400005 3683915
0.112 0.017000001 0.90100002 5196642
0.32800001 0.045000002 2.4130001 6776697
0.33700001 0.045000002 2.4080002 6316143
0.34600002 0.044000003 2.4030001 5526624
0.35600001 0.044000003 2.4020002 4145226
0.36500001 0.044000003 2.3990002 3947846
0.37500003 0.044000003 2.398 5131864
0.384 0.044000003 2.3950002 2631729
0.39300001 0.044000003 2.391 3289915
0.40200001 0.044000003 2.3870001 3816002
0.41200003 0.044000003 2.3840001 4342087
0.42100003 0.044000003 2.3820002 4013122
0.43100002 0.044000003 2.3850002 6710635
0.52600002 0.048 2.559 6316391
0.53800005 0.048 2.5660002 5460825
0.55000001 0.048 2.572 6645100
0.56200004 0.048 2.5770001 2434091
0.57200003 0.048 2.575 4670025
0.58500004 0.048 2.585 9670551
0.60100001 0.049000002 2.6070001 8551815
0.61600006 0.049000002 2.6230001 7828094
0.63200003 0.049000002 2.6450002 10131619
0.65200001 0.050000001 2.6830001 9473689
0.708 0.050000001 2.6780002 8092547
0.71600002 0.050000001 2.6660001 10856114
0.72700006 0.050000001 2.6670001 11118776
0.74500006 0.051000003 2.6890001 11118776
0.76000005 0.051000003 2.7010002 7369345
0.77400005 0.051000003 2.71 3092546
0.78700006 0.051000003 2.7150002 4473682
0.79900002 0.051000003 2.7150002 10922165
0.81000006 0.051000003 2.7130001 10656936
0.82100004 0.051000003 2.71 8220026
0.83100003 0.051000003 2.7050002 5523284
0.84100002 0.051000003 2.7 5328471
0.85300004 0.051000003 2.6990001 4735819
0.86400002 0.051000003 2.6960001 10461349
0.87500006 0.051000003 2.6960001 10395302
-0.21900001 0.021000002 0.90300006 5197148
-0.215 0.021000002 0.90100002 5065307
-0.21000001 0.020000001 0.89900005 4736342
-0.20600002 0.020000001 0.89700001 4867928
-0.20200001 0.020000001 0.89600003 4933721
-0.19800001 0.020000001 0.89500004 4736342
-0.19500001 0.020000001 0.89500004 4604756
-0.19100001 0.020000001 0.89500004 4407119
-0.18700001 0.020000001 0.89500004 3946569
-0.18300001 0.020000001 0.89500004 3025977
-0.18000001 0.020000001 0.89500004 2170666
-0.17600001 0.020000001 0.89500004 2170664
-0.17200001 0.020000001 0.89300007 2039076
-0.16800001 0.020000001 0.88900006 3025974
-0.163 0.020000001 0.88200003 2894387
-0.15800001 0.020000001 0.87500006 2959922
-0.15300001 0.020000001 0.87000006 3091508
-0.149 0.019000001 0.86400002 3223095
-0.14400001 0.019000001 0.85900003 3420476
-0.14 0.019000001 0.85300004 3683648
-0.13600001 0.019000001 0.84800005 3683394
-0.13100001 0.019000001 0.84300005 4012873
-0.127 0.019000001 0.83900005 4605269
-0.123 0.019000001 0.83400005 4868699
-0.119 0.019000001 0.83100003 5198177
-0.115 0.019000001 0.82700002 6447732
-0.11100001 0.018000001 0.82300001 6382195
-0.108 0.018000001 0.81900007 5198179
-0.104 0.018000001 0.81700003 4934750
-0.101 0.018000001 0.81500006 5198182
-0.097000003 0.018000001 0.81400001 5066339
-0.094000004 0.018000001 0.81300002 5132132
-0.090000004 0.018000001 0.81300002 5132389
-0.087000005 0.018000001 0.81100005 5000803
-0.084000006 0.018000001 0.81100005 5000803
-0.080000006 0.018000001 0.81000006 5132644
-0.077000007 0.018000001 0.80900002 5198181
-0.074000001 0.018000001 0.80900002 5066852
-0.07 0.018000001 0.80800003 5198182
-0.067000002 0.018000001 0.80800003 5000803
-0.064000003 0.018000001 0.80800003 4869989
-0.061000004 0.018000001 0.80800003 5133161
-0.057000004 0.018000001 0.80700004 4869989
-0.054000001 0.018000001 0.80600005 5067368
-0.051000003 0.018000001 0.80600005 5263977
-0.048 0.018000001 0.80400002 5132391
-0.044000003 0.018000001 0.80400002 5263977
-0.041000001 0.018000001 0.80300003 5329770
-0.038000003 0.018000001 0.80300003 5198184
-0.035 0.018000001 0.80300003 5329770
-0.032000002 0.018000001 0.80300003 5198184
-0.028000001 0.018000001 0.80200005 5395563
-0.025 0.018000001 0.80200005 5461356
-0.022000002 0.018000001 0.80200005 5527149
-0.019000001 0.018000001 0.80100006 5790321
-0.016000001 0.018000001 0.80100006 5527151
-0.012 0.018000001 0.80100006 5592944
-0.0090000005 0.018000001 0.80100006 5725044
-0.0060000001 0.018000001 0.80100006 6711939
-0.003 0.018000001 0.80200005 6646404
0 0.018000001 0.80200005 6251903
0.003 0.018000001 0.80300003 5198704
0.0070000002 0.018000001 0.80500007 4409438
0.010000001 0.018000001 0.80700004 3158599
0.013 0.018000001 0.81100005 2829889
0.016000001 0.018000001 0.81500006 2631997
0.020000001 0.018000001 0.81900007 2961220
0.023000002 0.018000001 0.82300001 4277082
0.027000001 0.019000001 0.82800007 5329770
0.030000001 0.019000001 0.83100003 5789810
0.033 0.019000001 0.83200002 4144983
0.037 0.019000001 0.83300006 3618638
0.040000003 0.019000001 0.83400005 4539229
0.043000001 0.019000001 0.83500004 4736608
0.047000002 0.019000001 0.83600003 5131110
0.050000001 0.019000001 0.83800006 5460075
0.054000001 0.019000001 0.83900005 5657454
0.057000004 0.019000001 0.84000003 4736352
0.060000002 0.019000001 0.84100002 4802145
0.064000003 0.019000001 0.84100002 4736352
0.067000002 0.019000001 0.84200007 4867938
0.071000002 0.019000001 0.84300005 5262696
0.074000001 0.019000001 0.84500003 4867938
0.078000002 0.019000001 0.84700006 4604766
0.081 0.019000001 0.85000002 4670559
0.085000001 0.019000001 0.85400003 4341594
0.089000002 0.019000001 0.85800004 4341594
0.093000002 0.019000001 0.86400002 4408157
0.098000005 0.020000001 0.87300003 5066085
0.10200001 0.020000001 0.88400006 5131362
0.10700001 0.020000001 0.89200002 3553099
0.11100001 0.020000001 0.89800006 4802145
0.32800001 0.054000001 2.4120002 6843261
0.33700001 0.054000001 2.4070001 6119280
0.34600002 0.054000001 2.4030001 5526882
0.35600001 0.054000001 2.4030001 4539727
0.36600003 0.054000001 2.4000001 4276296
0.37500003 0.054000001 2.3970001 5000022
0.384 0.054000001 2.3930001 2960694
0.39300001 0.054000001 2.3890002 3420989
0.40200001 0.054000001 2.3840001 4145225
0.41100001 0.054000001 2.3830001 3290172
0.42100003 0.054000001 2.3820002 3487037
0.43100002 0.054000001 2.3850002 6711663
0.52200001 0.058000002 2.539 6579047
0.53300005 0.058000002 2.5410001 7368564
0.54700005 0.058000002 2.5560002 3749950
0.55900002 0.058000002 2.5660002 2499883
0.57000005 0.058000002 2.5660002 3026228
0.58200002 0.058000002 2.569 7170930
0.59600002 0.059000004 2.5860002 3815745
0.65100002 0.061000004 2.6760001 10066081
0.66800004 0.062000003 2.7 9408152
0.67900002 0.062000003 2.7 8289670
0.68900001 0.061000004 2.6920002 7302774
0.69500005 0.061000004 2.6730001 4342087
0.70500004 0.061000004 2.6690001 9408407
0.71900004 0.061000004 2.6790001 10461096
0.73100001 0.061000004 2.6800001 2040620
0.76300001 0.062000003 2.7130001 5856614
0.77700001 0.062000003 2.7190001 5132636
0.78800005 0.062000003 2.7190001 3224382
0.79900002 0.062000003 2.7170002 10526378
0.81100005 0.062000003 2.7150002 9276307
0.82100004 0.062000003 2.71 8680318
0.83100003 0.062000003 2.7040002 5327700
0.84100002 0.062000003 2.7 5986655
0.85300004 0.062000003 2.6990001 6117984
0.86400002 0.062000003 2.6960001 10658727
0.87600005 0.062000003 2.697 10460835
-0.223 0.024 0.90500003 5526630
-0.21800001 0.024 0.90100002 5065820
-0.21400002 0.024 0.89900005 4868443
-0.21000001 0.024 0.89700001 4605271
-0.20600002 0.024 0.89600003 4473685
-0.20200001 0.024 0.89400005 4144720
-0.19800001 0.024 0.89300007 4868443
-0.19400001 0.024 0.89300007 4539221
-0.19000001 0.024 0.89300007 4538964
-0.18700001 0.024 0.89300007 3946827
-0.18300001 0.024 0.89300007 3289149
-0.17900001 0.024 0.89300007 2368045
-0.17600001 0.024 0.89300007 2499885
-0.17200001 0.024 0.89200002 1249817
-0.16700001 0.024 0.88800007 2828850
-0.163 0.023000002 0.88300002 2631471
-0.15800001 0.023000002 0.87700003 2696751
-0.15400001 0.023000002 0.87200004 3025714
-0.149 0.023000002 0.86600006 3091508
-0.14500001 0.023000002 0.86100006 3354681
-0.14 0.023000002 0.85600007 3420476
-0.13600001 0.023000002 0.85100001 3420988
-0.132 0.022000002 0.84500003 4012871
-0.127 0.022000002 0.84000003 4210509
-0.123 0.022000002 0.83600003 4276304
-0.119 0.022000002 0.83200002 4736855
-0.116 0.022000002 0.82800007 5329505
-0.11100001 0.022000002 0.82300001 6184812
-0.108 0.022000002 0.81900007 6250092
-0.104 0.022000002 0.81600004 4934750
-0.1 0.022000002 0.81400001 4935010
-0.097000003 0.021000002 0.81200004 5198184
-0.094000004 0.021000002 0.81100005 4935010
-0.090000004 0.021000002 0.81000006 5066596
-0.087000005 0.021000002 0.80900002 5000803
-0.084000006 0.021000002 0.80900002 4803937
-0.080000006 0.021000002 0.80800003 5132644
-0.077000007 0.021000002 0.80700004 5132644
-0.074000001 0.021000002 0.80700004 5263975
-0.07 0.021000002 0.80600005 5198182
-0.067000002 0.021000002 0.80600005 5395561
-0.064000003 0.021000002 0.80500007 5133159
-0.061000004 0.021000002 0.80500007 5067368
-0.057000004 0.021000002 0.80400002 4935782
-0.054000001 0.021000002 0.80400002 5066855
-0.051000003 0.021000002 0.80400002 5263977
-0.048 0.021000002 0.80300003 5263977
-0.044000003 0.021000002 0.80300003 5198184
-0.041000001 0.021000002 0.80200005 5132391
-0.038000003 0.021000002 0.80100006 5198183
-0.035 0.021000002 0.80100006 5263975
-0.032000002 0.021000002 0.80100006 5132391
-0.028000001 0.021000002 0.80000001 5263977
-0.025 0.021000002 0.80000001 5329771
-0.022000002 0.021000002 0.80000001 5592944
-0.019000001 0.021000002 0.79900002 5461358
-0.016000001 0.021000002 0.79900002 5527151
-0.012 0.021000002 0.79900002 5856116
-0.0090000005 0.021000002 0.79900002 5462129
-0.0060000001 0.021000002 0.79900002 6449027
-0.003 0.021000002 0.80000001 6712200
0 0.021000002 0.80000001 5791350
0.003 0.021000002 0.80200005 3817812
0.0070000002 0.021000002 0.80500007 3355720
0.010000001 0.021000002 0.80800003 2829376
0.013 0.021000002 0.81100005 2763841
0.016000001 0.021000002 0.81500006 3027013
0.020000001 0.022000002 0.81900007 4540252
0.023000002 0.022000002 0.82300001 5132389
0.027000001 0.022000002 0.82700002 5395563
0.030000001 0.022000002 0.82900006 5987957
0.033 0.022000002 0.83100003 5855605
0.037 0.022000002 0.83200002 2763584
0.040000003 0.022000002 0.83300006 4342616
0.043000001 0.022000002 0.83400005 4473948
0.047000002 0.022000002 0.83500004 4999525
0.050000001 0.022000002 0.83600003 4933731
0.054000001 0.022000002 0.83800006 5196903
0.057000004 0.022000002 0.83900005 4604766
0.060000002 0.022000002 0.83900005 4341594
0.064000003 0.022000002 0.84100002 4407387
0.067000002 0.022000002 0.84100002 4670559
0.071000002 0.022000002 0.84200007 4538973
0.074000001 0.022000002 0.84400004 4802145
0.078000002 0.022000002 0.84600002 4407387
0.081 0.022000002 0.84900004 4802145
0.085000001 0.022000002 0.85200006 4604766
0.089000002 0.023000002 0.85700005 4341594
0.093000002 0.023000002 0.86300004 4538973
0.098000005 0.023000002 0.87200004 4539741
0.10200001 0.023000002 0.88200003 5066085
0.10700001 0.024 0.89000005 4540251
0.11100001 0.024 0.89500004 4474205
0.32800001 0.064000003 2.4100001 6843258
0.33700001 0.064000003 2.4050002 5856104
0.34600002 0.064000003 2.401 5197659
0.35600001 0.064000003 2.4000001 3881541
0.36500001 0.063000001 2.3950002 4341834
0.37400001 0.063000001 2.3920002 5065558
0.38300002 0.063000001 2.3890002 4078920
0.39300001 0.063000001 2.3860002 5197657
0.40200001 0.063000001 2.3830001 3026486
0.41200003 0.063000001 2.3830001 2698035
0.42100003 0.063000001 2.3840001 2763827
0.43200001 0.064000003 2.391 6842994
0.53000003 0.067000002 2.529 5262931
0.54300004 0.068000004 2.5410001 4736844
0.55700004 0.068000004 2.5550001 4144710
0.57100004 0.069000006 2.569 2894389
0.78100002 0.074000001 2.733 10988211
0.78900003 0.074000001 2.7220001 3684673
0.80000001 0.074000001 2.7180002 9276051
0.81100005 0.074000001 2.7170002 9144976
0.82100004 0.073000006 2.7090001 9009539
0.82900006 0.073000006 2.6990001 9079183
0.84000003 0.073000006 2.697 5921118
0.85200006 0.073000006 2.6950002 6447462
0.86200005 0.073000006 2.6910002 10921640
-0.223 0.028000001 0.90200007 5329762
-0.21800001 0.028000001 0.89900005 5131100
-0.21400002 0.028000001 0.89700001 4999516
-0.21000001 0.028000001 0.89600003 4604758
-0.20600002 0.028000001 0.89400005 4802137
-0.20100001 0.027000001 0.89200002 4802137
-0.19700001 0.027000001 0.89100003 4473172
-0.19400001 0.027000001 0.89000005 4407379
-0.19000001 0.027000001 0.89100003 4670551
-0.186 0.027000001 0.89100003 3881035
-0.18300001 0.027000001 0.89100003 3552067
-0.17900001 0.027000001 0.89100003 2762549
-0.17500001 0.027000001 0.89100003 2170409
-0.171 0.027000001 0.89000005 1841443
-0.16700001 0.027000001 0.88800007 2104614
-0.163 0.027000001 0.88400006 2433579
-0.15900001 0.027000001 0.88000005 2499374
-0.15400001 0.027000001 0.87500006 2828338
-0.15000001 0.027000001 0.86900002 3288890
-0.14500001 0.026000001 0.86400002 3354429
-0.141 0.026000001 0.85800004 3552062
-0.13600001 0.026000001 0.85300004 4143944
-0.132 0.026000001 0.84800005 3946822
-0.12800001 0.026000001 0.84300005 4144458
-0.12400001 0.026000001 0.83700001 4144716
-0.12 0.025 0.83300006 4605267
-0.116 0.025 0.82800007 4803418
-0.11100001 0.025 0.82300001 5724263
-0.108 0.025 0.81800002 6381678
-0.104 0.025 0.81500006 5527400
-0.1 0.025 0.81200004 5000544
-0.097000003 0.025 0.81000006 5000802
-0.093000002 0.025 0.80900002 5066596
-0.090000004 0.025 0.80800003 5198182
-0.087000005 0.025 0.80700004 5066596
-0.083000004 0.025 0.80700004 5198952
-0.080000006 0.024 0.80600005 5198438
-0.077000007 0.024 0.80500007 5198438
-0.073000006 0.024 0.80500007 5330024
-0.07 0.024 0.80500007 5132389
-0.067000002 0.024 0.80400002 5329768
-0.064000003 0.024 0.80400002 5133159
-0.060000002 0.024 0.80300003 5132389
-0.057000004 0.024 0.80200005 5132389
-0.054000001 0.024 0.80200005 5263976
-0.051000003 0.024 0.80200005 5132391
-0.047000002 0.024 0.80100006 5000805
-0.044000003 0.024 0.80100006 5066598
-0.041000001 0.024 0.80000001 5000805
-0.038000003 0.024 0.80000001 5198184
-0.035 0.024 0.79900002 5132391
-0.031000001 0.024 0.79900002 5132391
-0.028000001 0.024 0.79900002 5066598
-0.025 0.024 0.79800004 5132391
-0.022000002 0.024 0.79800004 5395565
-0.019000001 0.024 0.79800004 5329772
-0.016000001 0.024 0.79700005 5461358
-0.012 0.024 0.79700005 5527151
-0.0090000005 0.024 0.79700005 5396331
-0.0060000001 0.024 0.79700005 6119802
-0.003 0.024 0.79800004 5659253
0 0.024 0.79900002 3685459
0.003 0.024 0.80100006 2632510
0.0070000002 0.024 0.80400002 2961220
0.010000001 0.024 0.80800003 3027013
0.013 0.025 0.81200004 3553100
0.016000001 0.025 0.81600004 4605788
0.020000001 0.025 0.81900007 5526636
0.023000002 0.025 0.82200003 5789810
0.027000001 0.025 0.82600003 5724274
0.030000001 0.025 0.82800007 5790067
0.033 0.025 0.83000004 4671840
0.037 0.025 0.83100003 4013651
0.040000003 0.025 0.83200002 3487304
0.043000001 0.025 0.83300006 4144983
0.047000002 0.025 0.83400005 5131110
0.050000001 0.025 0.83500004 4473180
0.053000003 0.025 0.83600003 5525868
0.057000004 0.025 0.83800006 4736352
0.060000002 0.025 0.83800006 4604766
0.064000003 0.025 0.84000003 4604766
0.067000002 0.026000001 0.84100002 5328489
0.071000002 0.026000001 0.84100002 4538973
0.074000001 0.026000001 0.84300005 5196903
0.078000002 0.026000001 0.84500003 4538973
0.081 0.026000001 0.84700006 4341594
0.085000001 0.026000001 0.85100001 4802145
0.089000002 0.026000001 0.85600007 4407387
0.093000002 0.026000001 0.86200005 4407644
0.097000003 0.026000001 0.87100005 4867938
0.10200001 0.027000001 0.88100004 5000292
0.10600001 0.027000001 0.88700002 4605277
0.11100001 0.027000001 0.89300007 4605785
0.32800001 0.073000006 2.4070001 6711415
0.33700001 0.073000006 2.4030001 5855336
0.34600002 0.073000006 2.3990002 4999765
0.35500002 0.073000006 2.3970001 4604748
0.36400002 0.073000006 2.391 3289658
0.37300003 0.073000006 2.388 3421244
0.38200003 0.073000006 2.3830001 2960436
0.39200002 0.073000006 2.3800001 5592154
0.40100002 0.073000006 2.3760002 3289401
0.41100001 0.073000006 2.3800001 2894902
0.42100003 0.073000006 2.3830001 2829620
0.43400002 0.073000006 2.398 8289926
0.55400002 0.078000002 2.5420001 5460825
0.79000002 0.085000001 2.7250001 7831170
0.80100006 0.085000001 2.723 8815755
0.82100004 0.084000006 2.7090001 9076101
0.82900006 0.084000006 2.697 9012876
0.84000003 0.084000006 2.6940002 5855325
0.85000002 0.084000006 2.6890001 6250594
-0.22200002 0.031000001 0.89900005 5460065
-0.21700001 0.031000001 0.89600003 5591649
-0.21300001 0.031000001 0.89500004 4999516
-0.20900001 0.031000001 0.89300007 4473172
-0.20500001 0.031000001 0.89200002 4867930
-0.20100001 0.031000001 0.89100003 4802137
-0.19700001 0.031000001 0.88900006 4670551
-0.193 0.031000001 0.88800007 4933723
-0.18900001 0.031000001 0.88800007 4802137
-0.186 0.031000001 0.88800007 4341586
-0.18200001 0.031000001 0.88800007 3947599
-0.17900001 0.031000001 0.88900006 3223618
-0.17500001 0.031000001 0.88900006 2763062
-0.171 0.031000001 0.88800007 1973288
-0.16700001 0.031000001 0.88700002 1775650
-0.163 0.031000001 0.88500005 1841444
-0.15900001 0.031000001 0.88200003 2301995
-0.15400001 0.030000001 0.87700003 3091256
-0.15000001 0.030000001 0.87100005 3354429
-0.14500001 0.030000001 0.86600006 3749443
-0.141 0.030000001 0.86100006 3618112
-0.13700001 0.030000001 0.85500002 3947588
-0.132 0.029000001 0.85000002 4013635
-0.12800001 0.029000001 0.84500003 4078917
-0.12400001 0.029000001 0.83900005 4210504
-0.12 0.029000001 0.83400005 4342350
-0.116 0.029000001 0.82800007 4934234
-0.112 0.028000001 0.82300001 5066076
-0.108 0.028000001 0.81800002 6250092
-0.104 0.028000001 0.81300002 6184816
-0.1 0.028000001 0.81100005 5132131
-0.096000001 0.028000001 0.80800003 4935009
-0.093000002 0.028000001 0.80700004 5197925
-0.090000004 0.028000001 0.80600005 5132389
-0.086000003 0.028000001 0.80600005 5329768
-0.083000004 0.028000001 0.80500007 5198952
-0.080000006 0.028000001 0.80500007 5198182
-0.077000007 0.028000001 0.80400002 5395561
-0.073000006 0.028000001 0.80400002 5132389
-0.07 0.028000001 0.80300003 5263975
-0.067000002 0.028000001 0.80200005 5263975
-0.064000003 0.028000001 0.80200005 5329768
-0.060000002 0.028000001 0.80200005 5198182
-0.057000004 0.027000001 0.80100006 5198184
-0.054000001 0.027000001 0.80100006 5329770
-0.051000003 0.027000001 0.80000001 5198184
-0.047000002 0.027000001 0.80000001 5263977
-0.044000003 0.027000001 0.79900002 5132391
-0.041000001 0.027000001 0.79900002 5132391
-0.038000003 0.027000001 0.79800004 5132904
-0.035 0.027000001 0.79800004 5133161
-0.031000001 0.027000001 0.79800004 5001575
-0.028000001 0.027000001 0.79700005 5001575
-0.025 0.027000001 0.79600006 5001575
-0.022000002 0.027000001 0.79600006 5001575
-0.019000001 0.027000001 0.79600006 5133161
-0.016000001 0.027000001 0.79600006 5133161
-0.012 0.027000001 0.79600006 5132907
-0.0090000005 0.027000001 0.79600006 4935784
-0.0060000001 0.027000001 0.79600006 6054263
-0.003 0.027000001 0.79700005 4737633
0 0.027000001 0.79800004 3553357
0.003 0.027000001 0.80100006 3421771
0.0070000002 0.028000001 0.80500007 3553357
0.010000001 0.028000001 0.80900002 4079701
0.013 0.028000001 0.81200004 4803425
0.016000001 0.028000001 0.81500006 5724528
0.020000001 0.028000001 0.81800002 5920880
0.023000002 0.028000001 0.82100004 5986673
0.026000001 0.028000001 0.82400006 5921137
0.030000001 0.028000001 0.82600003 5921137
0.033 0.028000001 0.82800007 6052984
0.036000002 0.028000001 0.82900006 5592941
0.040000003 0.028000001 0.83000004 2434616
0.043000001 0.029000001 0.83200002 3684172
0.047000002 0.029000001 0.83300006 4341848
0.050000001 0.029000001 0.83300006 4539227
0.053000003 0.029000001 0.83500004 4999523
0.057000004 0.029000001 0.83600003 4736352
0.060000002 0.029000001 0.83700001 4999524
0.064000003 0.029000001 0.83800006 4867938
0.067000002 0.029000001 0.83900005 4802145
0.07 0.029000001 0.84000003 4867938
0.074000001 0.029000001 0.84200007 4736352
0.078000002 0.029000001 0.84400004 5065317
0.081 0.029000001 0.84600002 4538973
0.085000001 0.029000001 0.84900004 4670559
0.089000002 0.029000001 0.85400003 4407387
0.093000002 0.030000001 0.86100006 4605018
0.097000003 0.030000001 0.87000006 4868190
0.10200001 0.030000001 0.87900007 4933983
0.10600001 0.030000001 0.88600004 4539225
0.11000001 0.031000001 0.89100003 4146266
0.32800001 0.083000004 2.4080002 5986920
0.33600003 0.083000004 2.4000001 4539213
0.34500003 0.083000004 2.3950002 3947072
0.35500002 0.083000004 2.3920002 4670542
0.36300001 0.082000002 2.3850002 5130837
0.37200001 0.082000002 2.381 5789022
0.38100001 0.082000002 2.3770001 3749438
0.39100003 0.082000002 2.375 5789021
0.40000001 0.082000002 2.3710001 3420472
0.41100001 0.082000002 2.3790002 2895672
0.42100003 0.082000002 2.3820002 3027256
0.43300003 0.083000004 2.3960001 8026754
0.44600001 0.083000004 2.4080002 10066337
0.45900002 0.084000006 2.4260001 11909058
0.79300004 0.096000001 2.7350001 9871011
0.80400002 0.096000001 2.7310002 8618120
0.81300002 0.096000001 2.7210002 8881547
0.82100004 0.096000001 2.7110002 9076615
0.82800007 0.095000006 2.6950002 7433843
0.83800006 0.095000006 2.6900001 5526103
-0.22100002 0.035 0.89700001 5460580
-0.21700001 0.035 0.89400005 5131102
-0.21300001 0.035 0.89300007 4933723
-0.20900001 0.035 0.89100003 4867930
-0.20500001 0.035 0.89000005 4736344
-0.20100001 0.035 0.88900006 4604758
-0.19700001 0.034000002 0.88800007 4736344
-0.193 0.034000002 0.88700002 4933723
-0.18900001 0.034000002 0.88700002 4538965
-0.186 0.034000002 0.88700002 4538965
-0.18200001 0.034000002 0.88600004 4210254
-0.178 0.034000002 0.88700002 3552324
-0.17500001 0.034000002 0.88700002 3289407
-0.171 0.034000002 0.88700002 2170926
-0.16700001 0.034000002 0.88600004 1381665
-0.163 0.034000002 0.88500005 2697525
-0.15900001 0.034000002 0.88200003 3552319
-0.155 0.034000002 0.87800002 4210249
-0.15000001 0.034000002 0.87200004 4144455
-0.14600001 0.033 0.86700004 4144710
-0.141 0.033 0.86200005 4144710
-0.13700001 0.033 0.85800004 4144710
-0.133 0.033 0.85200006 4407882
-0.12800001 0.033 0.84700006 4276296
-0.12400001 0.032000002 0.84100002 4539468
-0.12 0.032000002 0.83500004 4605263
-0.116 0.032000002 0.82900006 4868692
-0.112 0.032000002 0.82300001 4868694
-0.108 0.031000001 0.81800002 5723749
-0.104 0.031000001 0.81300002 6316143
-0.1 0.031000001 0.80900002 5461096
-0.096000001 0.031000001 0.80700004 5132388
-0.093000002 0.031000001 0.80500007 5395304
-0.089000002 0.031000001 0.80400002 5461354
-0.086000003 0.031000001 0.80400002 5066596
-0.083000004 0.031000001 0.80400002 5198952
-0.080000006 0.031000001 0.80300003 5263975
-0.076000005 0.031000001 0.80300003 5132389
-0.073000006 0.031000001 0.80300003 5132389
-0.07 0.031000001 0.80200005 5263975
-0.067000002 0.031000001 0.80100006 5395561
-0.063000001 0.031000001 0.80100006 5330023
-0.060000002 0.031000001 0.80000001 5066596
-0.057000004 0.031000001 0.80000001 5132389
-0.054000001 0.031000001 0.79900002 5329768
-0.051000003 0.031000001 0.79900002 5263977
-0.047000002 0.031000001 0.79800004 5132391
-0.044000003 0.031000001 0.79800004 5263977
-0.041000001 0.030000001 0.79700005 5132391
-0.038000003 0.030000001 0.79700005 5132648
-0.035 0.030000001 0.79700005 5198954
-0.031000001 0.030000001 0.79600006 5067368
-0.028000001 0.030000001 0.79600006 5132904
-0.025 0.030000001 0.79500002 5198698
-0.022000002 0.030000001 0.79500002 5132905
-0.019000001 0.030000001 0.79400003 5132906
-0.016000001 0.030000001 0.79400003 5132907
-0.012 0.030000001 0.79400003 5198700
-0.0090000005 0.030000001 0.79400003 5001579
-0.0060000001 0.030000001 0.79500002 5198700
-0.003 0.030000001 0.79600006 4474977
0 0.030000001 0.79700005 4869219
0.003 0.031000001 0.80000001 5066855
0.0070000002 0.031000001 0.80400002 5133162
0.010000001 0.031000001 0.80800003 5330286
0.013 0.031000001 0.81100005 5132907
0.016000001 0.031000001 0.81400001 5396594
0.020000001 0.031000001 0.81700003 5396594
0.023000002 0.031000001 0.82000005 5396594
0.026000001 0.031000001 0.82300001 5528180
0.030000001 0.032000002 0.82500005 6120317
0.033 0.032000002 0.82700002 5725044
0.036000002 0.032000002 0.82900006 5593460
0.040000003 0.032000002 0.83000004 4409186
0.043000001 0.032000002 0.83100003 2633024
0.047000002 0.032000002 0.83200002 3749967
0.050000001 0.032000002 0.83300006 4341848
0.053000003 0.032000002 0.83400005 4868192
0.057000004 0.032000002 0.83500004 4736352
0.060000002 0.032000002 0.83500004 4933731
0.064000003 0.032000002 0.83700001 4867938
0.067000002 0.032000002 0.83800006 5065317
0.07 0.032000002 0.83900005 4867938
0.074000001 0.032000002 0.84100002 4867938
0.077000007 0.032000002 0.84300005 4933731
0.081 0.032000002 0.84400004 5328489
0.085000001 0.033 0.84800005 5065317
0.089000002 0.033 0.85200006 4275801
0.093000002 0.033 0.85900003 4604766
0.097000003 0.033 0.86800003 4670815
0.10200001 0.034000002 0.87900007 5065316
0.10600001 0.034000002 0.88500005 4670558
0.11000001 0.034000002 0.89000005 4670301
0.32800001 0.093000002 2.4070001 6842229
0.33600003 0.092000008 2.4000001 4144454
0.34600002 0.092000008 2.3960001 4407622
0.35500002 0.092000008 2.3930001 4999249
0.36400002 0.092000008 2.3860002 5459801
0.37300003 0.092000008 2.3830001 5986399
0.38100001 0.092000008 2.3770001 4078402
0.39100003 0.092000008 2.3760002 5855068
0.40000001 0.091000006 2.3700001 3223348
0.41100001 0.092000008 2.378 3092279
0.42100003 0.092000008 2.3800001 3092792
0.43300003 0.092000008 2.3930001 7764095
0.44400004 0.093000002 2.401 10132386
0.45700002 0.093000002 2.414 11976136
0.79100001 0.10700001 2.7270002 8028037
0.80200005 0.10700001 2.7260001 8552326
0.82000005 0.10700001 2.7060001 9078411
0.82700002 0.10600001 2.6910002 5657433
0.83800006 0.10600001 2.687 4407879
-0.22100002 0.039000001 0.89500004 5723491
-0.21600001 0.038000003 0.89200002 4999514
-0.21200001 0.038000003 0.89100003 4867930
-0.208 0.038000003 0.89000005 4736344
-0.20400001 0.038000003 0.88800007 4473172
-0.20100001 0.038000003 0.88800007 4604758
-0.19700001 0.038000003 0.88700002 4802137
-0.192 0.038000003 0.88500005 4538965
-0.18900001 0.038000003 0.88500005 4538965
-0.185 0.038000003 0.88400006 4670551
-0.18100001 0.038000003 0.88400006 4538965
-0.178 0.038000003 0.88400006 3881289
-0.17400001 0.038000003 0.88500005 3486787
-0.17 0.038000003 0.88500005 2434353
-0.16700001 0.038000003 0.88400006 2697270
-0.163 0.038000003 0.88300002 3618372
-0.15900001 0.038000003 0.88000005 4078665
-0.15400001 0.037 0.87600005 4933974
-0.15000001 0.037 0.87200004 5065560
-0.14600001 0.037 0.86700004 4933973
-0.141 0.037 0.86300004 4605009
-0.13700001 0.037 0.85800004 4539216
-0.133 0.036000002 0.85300004 4605009
-0.12900001 0.036000002 0.84800005 4605007
-0.12400001 0.036000002 0.84200007 4670802
-0.12 0.036000002 0.83600003 4605522
-0.116 0.035 0.82900006 4934232
-0.112 0.035 0.82400006 5197406
-0.10700001 0.035 0.81700003 5526371
-0.10300001 0.034000002 0.81100005 6119275
-0.1 0.034000002 0.80800003 5198174
-0.096000001 0.034000002 0.80500007 5000544
-0.093000002 0.034000002 0.80400002 5000543
-0.089000002 0.034000002 0.80300003 5461096
-0.086000003 0.034000002 0.80300003 5197924
-0.083000004 0.034000002 0.80200005 5132389
-0.080000006 0.034000002 0.80200005 5329768
-0.076000005 0.034000002 0.80100006 5132389
-0.073000006 0.034000002 0.80100006 5263975
-0.07 0.034000002 0.80000001 5133159
-0.067000002 0.034000002 0.80000001 5001573
-0.063000001 0.034000002 0.79900002 5395816
-0.060000002 0.034000002 0.79900002 5461354
-0.057000004 0.034000002 0.79800004 5198182
-0.054000001 0.034000002 0.79800004 5132389
-0.050000001 0.034000002 0.79700005 5263977
-0.047000002 0.034000002 0.79700005 5198184
-0.044000003 0.034000002 0.79700005 5329770
-0.041000001 0.034000002 0.79600006 5198184
-0.038000003 0.034000002 0.79600006 5198183
-0.035 0.034000002 0.79600006 5263975
-0.031000001 0.034000002 0.79500002 5066596
-0.028000001 0.034000002 0.79500002 5132391
-0.025 0.034000002 0.79400003 5263977
-0.022000002 0.034000002 0.79400003 5198441
-0.019000001 0.033 0.79300004 5132648
-0.015000001 0.033 0.79300004 5067114
-0.012 0.033 0.79300004 5132393
-0.0090000005 0.033 0.79300004 4540770
-0.0060000001 0.034000002 0.79400003 4475231
-0.003 0.034000002 0.79500002 5593459
0 0.034000002 0.79700005 5132907
0.003 0.034000002 0.79900002 5067116
0.0070000002 0.034000002 0.80300003 5132139
0.010000001 0.034000002 0.80700004 5132139
0.013 0.034000002 0.81000006 5000553
0.016000001 0.034000002 0.81300002 5197932
0.020000001 0.034000002 0.81600004 5396079
0.023000002 0.035 0.81900007 5396079
0.026000001 0.035 0.82200003 5527665
0.030000001 0.035 0.82400006 5790839
0.033 0.035 0.82700002 4738150
0.036000002 0.035 0.82800007 5000553
0.040000003 0.035 0.82900006 5790322
0.043000001 0.035 0.83000004 4145497
0.047000002 0.035 0.83100003 2303033
0.050000001 0.035 0.83200002 3618894
0.053000003 0.035 0.83300006 4211031
0.057000004 0.035 0.83400005 4736604
0.060000002 0.035 0.83400005 4868192
0.063000001 0.035 0.83600003 4670559
0.067000002 0.035 0.83700001 4999524
0.07 0.035 0.83800006 4408157
0.074000001 0.036000002 0.84000003 4934501
0.077000007 0.036000002 0.84200007 4736352
0.081 0.036000002 0.84300005 4210008
0.085000001 0.036000002 0.84700006 4802145
0.088000007 0.036000002 0.85100001 4144215
0.093000002 0.036000002 0.85800004 4605021
0.097000003 0.037 0.86700004 4670813
0.10200001 0.037 0.87700003 4736606
0.10600001 0.037 0.88400006 4670813
0.11000001 0.038000003 0.88900006 4077902
0.32800001 0.10200001 2.4100001 6776691
0.33700001 0.10200001 2.4020002 4408141
0.34600002 0.10200001 2.3960001 3618366
0.35500002 0.10200001 2.3930001 3354679
0.36400002 0.101 2.3860002 3157561
0.37300003 0.101 2.3830001 3552571
0.38200003 0.101 2.3790002 5329235
0.39100003 0.101 2.378 3487031
0.40100002 0.101 2.375 3092275
0.41100001 0.101 2.378 3223867
0.42100003 0.101 2.3790002 3092279
0.43200001 0.10200001 2.3890002 7631996
0.44300002 0.10200001 2.3960001 10197923
0.45500001 0.10300001 2.4050002 11514553
0.79100001 0.11800001 2.7270002 1909802
0.80200005 0.11800001 2.723 8357000
0.81800002 0.11700001 2.6990001 8683912
0.82500005 0.11700001 2.6850002 4933711
0.83500004 0.11700001 2.677 4539465
-0.22000001 0.042000003 0.89200002 5328990
-0.21600001 0.042000003 0.89000005 4736855
-0.21200001 0.042000003 0.88900006 4867930
-0.208 0.042000003 0.88700002 4802137
-0.20400001 0.042000003 0.88600004 4275793
-0.2 0.042000003 0.88600004 4670551
-0.19600001 0.042000003 0.88500005 4407379
-0.192 0.041000001 0.88300002 4473172
-0.18800001 0.041000001 0.88300002 4867930
-0.185 0.041000001 0.88200003 4604758
-0.18100001 0.041000001 0.88200003 4341586
-0.177 0.041000001 0.88200003 4275791
-0.17400001 0.041000001 0.88200003 3486275
-0.17 0.041000001 0.88200003 3354943
-0.16600001 0.041000001 0.88200003 3289409
-0.162 0.041000001 0.88000005 3289408
-0.15800001 0.041000001 0.87800002 4078411
-0.15400001 0.041000001 0.87400001 4933975
-0.15000001 0.041000001 0.87100005 5394271
-0.14600001 0.040000003 0.86700004 5394527
-0.141 0.040000003 0.86300004 5328734
-0.13700001 0.040000003 0.85800004 5262685
-0.133 0.040000003 0.85300004 4999513
-0.12900001 0.039000001 0.84800005 5065820
-0.12400001 0.039000001 0.84200007 4934234
-0.12 0.039000001 0.83600003 5263199
-0.116 0.039000001 0.83000004 5394785
-0.112 0.038000003 0.82400006 5328992
-0.108 0.038000003 0.81800002 5658725
-0.10300001 0.038000003 0.81100005 6382446
-0.1 0.037 0.80700004 5658981
-0.096000001 0.037 0.80400002 5000800
-0.093000002 0.037 0.80200005 5263715
-0.089000002 0.037 0.80100006 5329510
-0.086000003 0.037 0.80100006 5197924
-0.083000004 0.037 0.80000001 5198182
-0.079000004 0.037 0.80000001 5263975
-0.076000005 0.037 0.79900002 5263975
-0.073000006 0.037 0.79900002 5395561
-0.07 0.037 0.79800004 5066853
-0.066 0.037 0.79800004 5198182
-0.063000001 0.037 0.79800004 5198182
-0.060000002 0.037 0.79700005 5527147
-0.057000004 0.037 0.79700005 5066597
-0.054000001 0.037 0.79600006 5198184
-0.050000001 0.037 0.79600006 5000805
-0.047000002 0.037 0.79600006 5000805
-0.044000003 0.037 0.79500002 5066598
-0.041000001 0.037 0.79500002 5329770
-0.038000003 0.037 0.79400003 5198183
-0.034000002 0.037 0.79400003 5198184
-0.031000001 0.037 0.79400003 4935012
-0.028000001 0.037 0.79400003 5263977
-0.025 0.037 0.79300004 5000805
-0.022000002 0.037 0.79300004 5001318
-0.019000001 0.037 0.79200006 4935782
-0.015000001 0.037 0.79200006 5000807
-0.012 0.037 0.79200006 4672612
-0.0090000005 0.037 0.79200006 4408669
-0.0060000001 0.037 0.79300004 4606049
-0.003 0.037 0.79500002 4737635
0 0.037 0.79600006 5526897
0.003 0.037 0.79800004 5658483
0.0070000002 0.037 0.80100006 5263725
0.010000001 0.037 0.80500007 5197932
0.013 0.037 0.80700004 5197932
0.016000001 0.037 0.81000006 5066346
0.020000001 0.038000003 0.81400001 5001321
0.023000002 0.038000003 0.81700003 5067116
0.026000001 0.038000003 0.82000005 5264238
0.030000001 0.038000003 0.82200003 5592690
0.033 0.038000003 0.82400006 5461874
0.036000002 0.038000003 0.82600003 5461873
0.040000003 0.038000003 0.82700002 5395823
0.043000001 0.038000003 0.82900006 5461358
0.046000004 0.038000003 0.83000004 4276823
0.050000001 0.038000003 0.83100003 2434618
0.053000003 0.038000003 0.83200002 3750224
0.057000004 0.039000001 0.83300006 4473182
0.060000002 0.039000001 0.83300006 4670559
0.063000001 0.039000001 0.83400005 4538973
0.067000002 0.039000001 0.83500004 4933731
0.07 0.039000001 0.83700001 4802915
0.074000001 0.039000001 0.83800006 5000294
0.077000007 0.039000001 0.84000003 4407387
0.081 0.039000001 0.84300005 4538973
0.085000001 0.039000001 0.84600002 4736352
0.088000007 0.039000001 0.85100001 4538973
0.093000002 0.040000003 0.85700005 4538973
0.097000003 0.040000003 0.86600006 4473180
0.10200001 0.041000001 0.87600005 4473434
0.10600001 0.041000001 0.88300002 4604764
0.11000001 0.041000001 0.88900006 3486024
0.11400001 0.041000001 0.89200002 7763073
0.32800001 0.112 2.411 8750481
0.33700001 0.112 2.4030001 5986661
0.34600002 0.11100001 2.3970001 4802640
0.35500002 0.11100001 2.3960001 3749694
0.36400002 0.11100001 2.391 4605259
0.37400001 0.11100001 2.3890002 5526361
0.38300002 0.11100001 2.3850002 4210501
0.39200002 0.11100001 2.3840001 6316388
0.40100002 0.11100001 2.3800001 3355704
0.41100001 0.11100001 2.381 3158074
0.42100003 0.11100001 2.3790002 3092022
0.43100002 0.11100001 2.3830001 7763582
0.44200003 0.11100001 2.3870001 10789803
0.45400003 0.112 2.398 11514553
0.80100006 0.12900001 2.7190001 8684427
0.80800003 0.12900001 2.7060001 8684170
0.81700003 0.12800001 2.6950002 4406340
0.82500005 0.12800001 2.6830001 4144450
-0.22000001 0.046000004 0.89000005 5394274
-0.215 0.045000002 0.88800007 4802137
-0.21200001 0.045000002 0.88700002 4867930
-0.208 0.045000002 0.88600004 4670551
-0.20400001 0.045000002 0.88500005 4407379
-0.2 0.045000002 0.88400006 4407379
-0.19600001 0.045000002 0.88300002 4473172
-0.192 0.045000002 0.88200003 4341586
-0.18800001 0.045000002 0.88100004 4736344
-0.18400002 0.045000002 0.88000005 4407379
-0.18000001 0.045000002 0.88000005 4670549
-0.177 0.045000002 0.88000005 4341584
-0.17300001 0.045000002 0.88000005 3946826
-0.17 0.045000002 0.88000005 3881035
-0.16600001 0.045000002 0.87800002 3618376
-0.162 0.044000003 0.87600005 3618375
-0.15800001 0.044000003 0.87400001 3947339
-0.15400001 0.044000003 0.87100005 4671060
-0.149 0.044000003 0.86800003 5263197
-0.14500001 0.044000003 0.86500007 5525858
-0.141 0.044000003 0.86100006 5723237
-0.13700001 0.043000001 0.85700005 5723237
-0.133 0.043000001 0.85200006 5591651
-0.12900001 0.043000001 0.84700006 5526114
-0.12400001 0.042000003 0.84100002 5854822
-0.12 0.042000003 0.83600003 5789030
-0.116 0.042000003 0.83000004 5854823
-0.112 0.042000003 0.82500005 6118250
-0.108 0.041000001 0.81800002 6315625
-0.10300001 0.041000001 0.81100005 6447723
-0.099000007 0.041000001 0.80600005 5855847
-0.096000001 0.040000003 0.80200005 4868958
-0.092000008 0.040000003 0.80100006 5263717
-0.089000002 0.040000003 0.79900002 5263717
-0.086000003 0.040000003 0.79900002 5066338
-0.083000004 0.040000003 0.79900002 5197925
-0.079000004 0.040000003 0.79800004 5197925
-0.076000005 0.040000003 0.79800004 5198182
-0.073000006 0.040000003 0.79800004 5198182
-0.07 0.040000003 0.79700005 4869987
-0.066 0.040000003 0.79600006 5133159
-0.063000001 0.040000003 0.79600006 5132644
-0.060000002 0.040000003 0.79600006 5066596
-0.057000004 0.040000003 0.79600006 5329768
-0.054000001 0.040000003 0.79600006 5329768
-0.050000001 0.040000003 0.79500002 5263977
-0.047000002 0.040000003 0.79500002 4935012
-0.044000003 0.040000003 0.79400003 5132391
-0.041000001 0.040000003 0.79400003 5198184
-0.038000003 0.040000003 0.79300004 4935268
-0.034000002 0.040000003 0.79300004 5067366
-0.031000001 0.040000003 0.79300004 5264745
-0.028000001 0.040000003 0.79300004 5198184
-0.025 0.040000003 0.79200006 5198440
-0.022000002 0.040000003 0.79200006 4935525
-0.019000001 0.040000003 0.79100001 4935782
-0.015000001 0.040000003 0.79100001 4671840
-0.012 0.040000003 0.79100001 4540254
-0.0090000005 0.040000003 0.79200006 4474202
-0.0060000001 0.040000003 0.79200006 4408668
-0.003 0.040000003 0.79400003 4540253
0 0.040000003 0.79500002 5000806
0.003 0.040000003 0.79600006 5527149
0.0070000002 0.040000003 0.79900002 5988218
0.010000001 0.040000003 0.80200005 5461874
0.013 0.040000003 0.80400002 5067116
0.016000001 0.040000003 0.80700004 4869737
0.020000001 0.041000001 0.81000006 5132909
0.023000002 0.041000001 0.81300002 4869737
0.026000001 0.041000001 0.81600004 4935530
0.030000001 0.041000001 0.81900007 5198702
0.033 0.041000001 0.82100004 5527153
0.036000002 0.041000001 0.82300001 5725046
0.040000003 0.041000001 0.82500005 5790839
0.043000001 0.041000001 0.82600003 5198702
0.046000004 0.042000003 0.82800007 5790324
0.050000001 0.042000003 0.83000004 5263722
0.053000003 0.042000003 0.83100003 1907764
0.057000004 0.042000003 0.83200002 3354950
0.060000002 0.042000003 0.83200002 4209747
0.063000001 0.042000003 0.83300006 4671071
0.067000002 0.042000003 0.83400005 4868451
0.07 0.042000003 0.83600003 4999780
0.074000001 0.042000003 0.83700001 4933732
0.077000007 0.042000003 0.83900005 4671327
0.081 0.042000003 0.84200007 4605534
0.084000006 0.043000001 0.84500003 4605278
0.088000007 0.043000001 0.84900004 4407899
0.092000008 0.043000001 0.85600007 4012884
0.097000003 0.044000003 0.86500007 4276055
0.10200001 0.044000003 0.87500006 4407639
0.10600001 0.044000003 0.88200003 4407639
0.11000001 0.045000002 0.88800007 3881296
0.11400001 0.045000002 0.89200002 10723497
0.33700001 0.12100001 2.404 6644849
0.34600002 0.12100001 2.3990002 6776689
0.35600001 0.12100001 2.398 4211014
0.36500001 0.12100001 2.3950002 4475467
0.37500003 0.12100001 2.3950002 3553595
0.384 0.12100001 2.391 2763566
0.39300001 0.12100001 2.3890002 3026738
0.40300003 0.12100001 2.3860002 3882304
0.41200003 0.12100001 2.3830001 4081224
0.42100003 0.12100001 2.381 3753030
0.43100002 0.12100001 2.3820002 8357513
0.44100001 0.12100001 2.3840001 10855851
0.45300001 0.12100001 2.3920002 9343382
0.79000002 0.14 2.723 2501941
0.79800004 0.14 2.7090001 7896451
0.80600005 0.13900001 2.6980002 7237492
0.81500006 0.13900001 2.6890001 4210501
0.82300001 0.13800001 2.677 5000018
0.83300006 0.13800001 2.6710002 4210501
-0.22400001 0.049000002 0.89300007 6052202
-0.22000001 0.049000002 0.88900006 5394274
-0.215 0.049000002 0.88700002 4933979
-0.21100001 0.049000002 0.88600004 4867930
-0.20700002 0.049000002 0.88400006 4802137
-0.20300001 0.049000002 0.88300002 4736344
-0.19900002 0.049000002 0.88200003 4604758
-0.19500001 0.048 0.88100004 4802137
-0.19100001 0.048 0.88000005 4473172
-0.18800001 0.048 0.87900007 4867930
-0.18400002 0.048 0.87800002 4802137
-0.18000001 0.048 0.87800002 4605271
-0.17600001 0.048 0.87800002 4144721
-0.17300001 0.048 0.87700003 4210513
-0.16900001 0.048 0.87600005 4144463
-0.16500001 0.048 0.87400001 4079438
-0.16100001 0.048 0.87200004 4079441
-0.15700001 0.048 0.87000006 4144975
-0.15300001 0.047000002 0.86800003 4605271
-0.149 0.047000002 0.86600006 5131613
-0.14500001 0.047000002 0.86300004 5657695
-0.141 0.047000002 0.85900003 5723489
-0.13700001 0.047000002 0.85600007 6052453
-0.132 0.046000004 0.85000002 5986660
-0.12800001 0.046000004 0.84500003 5986915
-0.12400001 0.046000004 0.84000003 6184040
-0.12 0.046000004 0.83500004 6315624
-0.116 0.045000002 0.83000004 6249833
-0.112 0.045000002 0.82500005 6381419
-0.108 0.045000002 0.81800002 6381931
-0.10300001 0.044000003 0.81100005 6381931
-0.099000007 0.044000003 0.80500007 5790054
-0.096000001 0.044000003 0.80100006 5000800
-0.092000008 0.043000001 0.79900002 5197924
-0.089000002 0.043000001 0.79800004 5000546
-0.086000003 0.043000001 0.79800004 4868960
-0.082000002 0.043000001 0.79700005 5263718
-0.079000004 0.043000001 0.79600006 5132389
-0.076000005 0.043000001 0.79600006 5066596
-0.073000006 0.043000001 0.79600006 5066596
-0.069000006 0.043000001 0.79600006 4935780
-0.066 0.043000001 0.79500002 4869987
-0.063000001 0.043000001 0.79500002 5132644
-0.060000002 0.043000001 0.79500002 5000803
-0.057000004 0.043000001 0.79400003 5132389
-0.053000003 0.043000001 0.79400003 5066596
-0.050000001 0.043000001 0.79400003 4935012
-0.047000002 0.043000001 0.79300004 5000805
-0.044000003 0.043000001 0.79300004 4935012
-0.041000001 0.043000001 0.79300004 4935012
