# .PCD v0.7 - Point Cloud Data file format
VERSION 0.7
FIELDS x y z rgb
SIZE 4 4 4 4
TYPE F F F U
COUNT 1 1 1 1
WIDTH 1252
HEIGHT 1
VIEWPOINT 0 0 0 1 0 0 0
POINTS 1252
DATA ascii
0.68300003 -0.046000004 1.4760001 8356224
0.69000006 -0.046000004 1.4760001 8422018
0.69800001 -0.046000004 1.4760001 8487297
0.70500004 -0.046000004 1.4760001 8487810
0.71300006 -0.046000004 1.4770001 8619912
0.72000003 -0.047000002 1.478 8356739
0.72800004 -0.047000002 1.478 8356740
0.75000006 -0.047000002 1.4790001 8423047
0.76500005 -0.047000002 1.4790001 8488066
0.77300006 -0.047000002 1.4790001 8554118
0.78000003 -0.047000002 1.478 8488325
0.78800005 -0.047000002 1.4790001 8488067
0.79500002 -0.047000002 1.478 8554115
0.80300003 -0.047000002 1.478 8619394
0.81100005 -0.047000002 1.4790001 8487806
0.85800004 -0.048 1.4790001 8356993
0.86500007 -0.048 1.478 8422786
0.87300003 -0.048 1.478 8488577
0.88100004 -0.048 1.478 8554371
0.89000005 -0.048 1.4790001 8423042
0.92300004 -0.049000002 1.4790001 8487806
0.93100005 -0.049000002 1.4790001 8291197
0.93900007 -0.049000002 1.4790001 8488576
0.94700003 -0.049000002 1.478 8356992
0.95500004 -0.049000002 1.4770001 8291711
0.96300006 -0.049000002 1.4770001 8291710
0.97100008 -0.049000002 1.475 8291710
0.97900003 -0.049000002 1.475 8291710
0.98800004 -0.049000002 1.475 8095101
0.99800003 -0.049000002 1.4770001 8094847
1.006 -0.050000001 1.4770001 8029054
1.0150001 -0.050000001 1.4770001 8094332
1.024 -0.050000001 1.4770001 8094589
1.033 -0.050000001 1.4770001 8028797
1.0420001 -0.050000001 1.4770001 7963773
0.059000004 -0.043000001 1.4760001 16770770
0.47900003 -0.045000002 1.475 6513254
0.48600003 -0.045000002 1.4770001 7039853
0.49300003 -0.045000002 1.4770001 7303023
0.49900001 -0.045000002 1.4770001 7500404
0.50600004 -0.045000002 1.4770001 7697781
0.51300001 -0.045000002 1.478 7960440
0.51900005 -0.045000002 1.4770001 7960694
0.52600002 -0.045000002 1.4770001 8223867
0.53300005 -0.045000002 1.478 8289660
0.53900003 -0.045000002 1.478 8421246
0.546 -0.045000002 1.478 8420989
0.55300003 -0.045000002 1.478 8420991
0.55900002 -0.045000002 1.478 8487041
0.56600004 -0.045000002 1.478 8421506
0.57300001 -0.045000002 1.478 8355456
0.57900006 -0.045000002 1.4770001 8487299
0.58600003 -0.045000002 1.4770001 8421763
0.59900004 -0.045000002 1.475 8224384
0.62600005 -0.040000003 1.475 8026489
0.634 -0.040000003 1.4760001 8487295
0.64100003 -0.040000003 1.4770001 8421759
0.648 -0.040000003 1.4770001 8683642
0.65600002 -0.040000003 1.478 8552573
0.67700005 -0.040000003 1.4770001 8618364
0.68400002 -0.040000003 1.4770001 8552572
0.69100004 -0.040000003 1.4770001 8552829
0.69800001 -0.040000003 1.4760001 8553087
0.70400006 -0.040000003 1.475 8684417
0.71200001 -0.040000003 1.475 8684674
0.71900004 -0.040000003 1.4760001 8553089
0.72600001 -0.040000003 1.475 8553603
0.73400003 -0.040000003 1.475 8553601
0.74100006 -0.040000003 1.475 8750980
0.74800003 -0.040000003 1.475 8685189
0.75600004 -0.040000003 1.475 8553599
0.76400006 -0.041000001 1.4760001 8619393
0.77100003 -0.041000001 1.4760001 8685185
0.77900004 -0.041000001 1.4760001 8685185
0.78700006 -0.041000001 1.4770001 8684927
0.79500002 -0.041000001 1.4770001 8685184
0.80200005 -0.041000001 1.4770001 8619647
0.81000006 -0.041000001 1.478 8750721
0.86600006 -0.042000003 1.4790001 8553599
0.88200003 -0.042000003 1.4790001 8422525
0.93900007 -0.042000003 1.4790001 8291196
0.94700003 -0.042000003 1.478 8356475
0.95400006 -0.042000003 1.4760001 8225403
0.96200007 -0.042000003 1.475 8225660
0.48700002 -0.039000001 1.478 6513509
0.49300003 -0.039000001 1.4790001 6908526
0.5 -0.039000001 1.478 7171439
0.50600004 -0.039000001 1.478 7763576
0.51300001 -0.039000001 1.4790001 7894901
0.52000004 -0.039000001 1.4790001 8223096
0.52600002 -0.039000001 1.4790001 8026489
0.54000002 -0.039000001 1.4790001 8420474
0.546 -0.039000001 1.4790001 8223863
0.56600004 -0.039000001 1.4790001 8617854
0.57300001 -0.039000001 1.4790001 8092287
0.58000004 -0.039000001 1.478 8552834
0.58600003 -0.039000001 1.4770001 8421246
0.59300005 -0.039000001 1.4770001 8486784
0.60000002 -0.039000001 1.4770001 8553092
0.60600001 -0.039000001 1.4760001 8882057
0.61300004 -0.039000001 1.4770001 8421506
0.62 -0.039000001 1.4760001 8421503
0.95600003 -0.036000002 1.4790001 8618875
0.96400005 -0.036000002 1.478 8553339
0.97000003 -0.036000002 1.475 8554108
0.60000002 -0.033 1.4790001 6182737
0.60700005 -0.033 1.478 6577495
0.61400002 -0.033 1.4790001 6906459
0.62100005 -0.033 1.478 7103840
0.62700003 -0.033 1.4770001 6972768
0.634 -0.033 1.4770001 6447196
0.64900005 -0.034000002 1.4790001 7104868
0.68500006 -0.034000002 1.4790001 8617334
0.69200003 -0.034000002 1.4790001 8551541
0.69900006 -0.034000002 1.478 8749436
0.70600003 -0.034000002 1.478 8881022
0.71300006 -0.034000002 1.4770001 8420727
0.72000003 -0.034000002 1.4770001 8552314
0.72700006 -0.034000002 1.4760001 8551799
0.73400003 -0.034000002 1.4760001 8684415
0.74100006 -0.034000002 1.475 8881536
0.74800003 -0.034000002 1.475 9276808
0.75600004 -0.034000002 1.4760001 9342857
0.76400006 -0.034000002 1.4770001 8882304
0.77300006 -0.034000002 1.4790001 9473416
0.78000003 -0.034000002 1.4790001 9341831
0.79600006 -0.034000002 1.4790001 8750978
0.72800004 -0.028000001 1.4790001 6838093
0.73500001 -0.028000001 1.4790001 5853257
0.97000003 -0.029000001 1.475 2497562
-1.1140001 -0.016000001 1.4770001 6250074
0.46700001 0.058000002 1.4790001 4935780
0.46600002 0.064000003 1.475 5133159
0.51200002 0.065000005 1.475 5528168
0.47300002 0.07 1.4760001 5198952
0.48100004 0.071000002 1.4790001 5264745
0.48700002 0.071000002 1.4790001 5330538
0.49300003 0.071000002 1.478 5462636
0.5 0.071000002 1.4770001 5791600
0.505 0.071000002 1.475 5988978
0.48200002 0.19900002 1.4760001 8092288
0.48900002 0.19900002 1.4760001 8027009
0.49500003 0.19900002 1.4760001 8026746
0.50100005 0.19900002 1.475 5986648
-0.93500006 0.20300001 1.478 7430223
-0.92600006 0.20300001 1.4770001 7955276
-0.91800004 0.20200001 1.4770001 8743503
-0.91000003 0.20200001 1.478 9138258
-0.90300006 0.20200001 1.4790001 9467223
-0.88600004 0.20100001 1.478 10190946
-0.87800002 0.20100001 1.478 10388066
0.46200001 0.20400001 1.475 8289669
0.46900001 0.20500001 1.4760001 8289669
0.47600001 0.20500001 1.4770001 8223876
0.48300001 0.20500001 1.4790001 8092290
0.49000001 0.20600002 1.478 8092290
0.49600002 0.20600002 1.478 8026237
0.50200003 0.20600002 1.4770001 8618625
0.509 0.20600002 1.4770001 6973545
0.51600003 0.20600002 1.4770001 7170156
0.45000002 0.21000001 1.4760001 8355462
0.45700002 0.21100001 1.4770001 8223876
0.46400002 0.21100001 1.4790001 8223622
0.43100002 0.21600001 1.475 8355207
0.43700001 0.21600001 1.4760001 8224135
0.44400004 0.21700001 1.478 8355462
0.45100003 0.21700001 1.4790001 8355462
0.41800001 0.22200002 1.475 8289672
0.42500001 0.22200002 1.4760001 8355208
0.43100002 0.22200002 1.4770001 8355207
0.43800002 0.223 1.4790001 8421000
0.39900002 0.22700001 1.475 8289415
0.40600002 0.22800002 1.4760001 8224135
0.41200003 0.22800002 1.4770001 8289415
0.41900003 0.22800002 1.478 8355208
-0.84000003 0.23200001 1.4790001 4337188
0.38000003 0.23300001 1.475 8420743
0.38700002 0.23300001 1.4770001 8420744
0.39300001 0.23400001 1.4770001 8420744
0.40000001 0.23400001 1.478 8420742
-0.84000003 0.23900001 1.4790001 4009509
0.36800003 0.23900001 1.475 8486535
0.37400001 0.23900001 1.4760001 8420742
0.38100001 0.23900001 1.478 8486535
0.35600001 0.24400002 1.475 8420742
-0.84000003 0.245 1.478 4074276
0.36200002 0.245 1.4770001 8618121
0.36900002 0.245 1.4790001 8420743
-0.84100002 0.252 1.4790001 3942948
0.34300002 0.25 1.4760001 8420744
0.35000002 0.25100002 1.4770001 8025984
0.35700002 0.25100002 1.4790001 8486536
-0.84000003 0.25800002 1.4770001 3615523
0.32500002 0.25600001 1.475 8748939
0.33100003 0.25600001 1.4770001 8748938
0.33800003 0.257 1.478 8617352
0.30600002 0.26200002 1.475 8880525
0.31300002 0.26200002 1.4760001 8814732
0.31900001 0.26200002 1.4770001 8814732
0.32600001 0.26300001 1.478 8748939
-0.84000003 0.26500002 1.475 3943718
0.28800002 0.26700002 1.475 8880525
0.294 0.26800001 1.4760001 8814732
0.30100003 0.26800001 1.4770001 8880525
0.30700001 0.26800001 1.4790001 8880525
0.042000003 0.27000001 1.475 14535102
0.27000001 0.273 1.475 8881036
0.27600002 0.27400002 1.4770001 8881293
0.28300002 0.27400002 1.478 8749709
0.042000003 0.27700001 1.4790001 14469822
0.264 0.27900001 1.475 8946316
0.27000001 0.28 1.478 9077902
0.042000003 0.289 1.4770001 14601150
0.24600001 0.28500003 1.475 9208975
0.252 0.28500003 1.4770001 9077389
0.25800002 0.28600001 1.478 9011596
0.26500002 0.28600001 1.4790001 9143182
0.22800002 0.29100001 1.4760001 9143695
0.23400001 0.29100001 1.4770001 9274768
0.24000001 0.29100001 1.478 9208975
0.24600001 0.29200003 1.4790001 9143182
0.20900001 0.296 1.475 9340815
0.21600001 0.29700002 1.4760001 9209229
0.22200002 0.29700002 1.478 9275022
0.22800002 0.29700002 1.4790001 9209229
0.042000003 0.30100003 1.4770001 14535357
0.19100001 0.30200002 1.475 9340815
0.19800001 0.30200002 1.4760001 9471888
0.20400001 0.303 1.4770001 9537424
0.21000001 0.303 1.478 9341327
0.17300001 0.30800003 1.475 9538194
0.18000001 0.30800003 1.4760001 9406608
0.186 0.30900002 1.478 9341328
0.192 0.30900002 1.4790001 9341071
0.156 0.31400001 1.475 9603987
0.162 0.31400001 1.4760001 9538194
0.16800001 0.31400001 1.4770001 9406865
0.17400001 0.31500003 1.478 9472401
0.18000001 0.31500003 1.4790001 9341328
0.13800001 0.32000002 1.475 9735573
0.14400001 0.32000002 1.4760001 9604500
0.15000001 0.32000002 1.4770001 9538194
0.156 0.32100001 1.478 9538451
0.162 0.32100001 1.4790001 9538194
0.126 0.32600001 1.475 9670293
0.132 0.32600001 1.4760001 9735573
0.13800001 0.32600001 1.4770001 9669780
0.14400001 0.32700002 1.478 9669780
0.048 0.33200002 1.4790001 13286324
0.11400001 0.33200002 1.4760001 9867159
0.12 0.33200002 1.4770001 9801366
0.126 0.33200002 1.478 9735573
0.096000001 0.33800003 1.475 10063767
0.10200001 0.33800003 1.4770001 9997975
0.108 0.33800003 1.478 9932952
0.11400001 0.33900002 1.4790001 9867159
0.054000001 0.34300002 1.475 10130072
0.078000002 0.34400001 1.475 10063768
0.084000006 0.34400001 1.4770001 9997974
0.090000004 0.34400001 1.478 10129561
0.096000001 0.34500003 1.4790001 10063768
0.054000001 0.35000002 1.478 9998743
0.060000002 0.35000002 1.4760001 9932951
0.066 0.35000002 1.4760001 10064024
0.072000004 0.35000002 1.4770001 10063767
0.078000002 0.35100001 1.478 10129559
0.40100002 -0.39700001 1.483 12561827
0.37500003 -0.38900003 1.4820001 12825258
0.38100001 -0.38900003 1.48 12890538
0.33600003 -0.38100001 1.4810001 14736090
0.34300002 -0.38100001 1.4820001 13222851
0.29800001 -0.37300003 1.48 14011337
0.23 -0.35900003 1.4840001 16045243
0.22900002 -0.303 1.483 13280148
0.23400001 -0.27800003 1.4810001 15780266
0.24000001 -0.25300002 1.48 16106660
0.24600001 -0.24100001 1.48 13277309
0.24600001 -0.23600002 1.483 13145723
0.33800003 -0.23100001 1.48 9264716
0.34400001 -0.23100001 1.48 8804165
0.35000002 -0.23100001 1.48 9791576
0.35600001 -0.23100001 1.48 9462611
0.36300001 -0.23200001 1.48 9199182
0.36900002 -0.23200001 1.48 9001546
0.37500003 -0.23200001 1.48 9726296
0.38200003 -0.23200001 1.48 9594710
0.38800001 -0.23200001 1.48 9660761
0.252 -0.22900002 1.4810001 11237728
0.35100001 -0.22600001 1.4820001 8411467
0.35700002 -0.22600001 1.4820001 8543051
0.36300001 -0.22600001 1.4810001 7885122
0.36900002 -0.22600001 1.4810001 6701359
0.37500003 -0.22600001 1.4810001 7293239
0.38200003 -0.22600001 1.4810001 6306602
0.38800001 -0.22600001 1.4810001 6241065
0.39400002 -0.22600001 1.48 6504238
0.252 -0.22400001 1.483 11171676
0.25800002 -0.223 1.4810001 10974557
0.264 -0.223 1.48 10514522
0.27000001 -0.22400001 1.48 10317145
0.27600002 -0.22400001 1.48 10382936
0.28200001 -0.22400001 1.48 10646108
0.28800002 -0.22400001 1.48 10646109
0.294 -0.22400001 1.48 10448730
0.30100003 -0.22400001 1.4810001 10448730
0.30700001 -0.22400001 1.48 10382937
0.31300002 -0.22400001 1.48 10185815
0.31900001 -0.22500001 1.48 10054229
0.32500002 -0.22500001 1.4810001 8871500
0.33200002 -0.22500001 1.4820001 8937294
0.33800003 -0.22500001 1.4820001 8871502
0.34400001 -0.22500001 1.4820001 9134674
0.37500003 -0.22000001 1.48 8347212
0.24600001 -0.21800001 1.4840001 14592140
0.25100002 -0.21700001 1.4810001 11697766
0.257 -0.21700001 1.48 10842717
0.28800002 -0.21800001 1.48 9857366
0.294 -0.21800001 1.48 9725780
0.30000001 -0.21800001 1.48 9989464
0.32500002 -0.21900001 1.48 6701361
0.33100003 -0.21900001 1.48 6043431
0.33800003 -0.21900001 1.4810001 5450781
0.34400001 -0.21900001 1.48 4661778
0.35000002 -0.21900001 1.48 5583137
0.20300001 -0.21100001 1.4840001 10647907
0.22100002 -0.21100001 1.48 13474685
0.19100001 -0.21000001 1.48 10057058
0.17300001 -0.20400001 1.4810001 16247513
0.47000003 -0.10600001 1.4840001 9411765
0.178 -0.10300001 1.4840001 16566700
0.46900001 -0.088000007 1.4840001 7371924
0.178 -0.085000001 1.4840001 16634034
0.46800002 -0.081 1.48 6978196
0.17200001 -0.067000002 1.4840001 14594191
0.071000002 -0.061000004 1.483 13545111
0.077000007 -0.061000004 1.4810001 13609623
0.083000004 -0.061000004 1.4810001 12885900
0.089000002 -0.061000004 1.483 15254187
0.095000006 -0.061000004 1.483 14726553
0.101 -0.061000004 1.483 14791831
0.10700001 -0.061000004 1.483 14792090
0.11300001 -0.061000004 1.483 14923676
0.11800001 -0.061000004 1.4820001 14857881
0.125 -0.061000004 1.4840001 14857881
0.13000001 -0.061000004 1.483 14857623
0.13600001 -0.061000004 1.4840001 14726295
0.142 -0.061000004 1.483 14660502
0.148 -0.061000004 1.483 14660245
0.15400001 -0.061000004 1.4810001 14660243
0.16000001 -0.061000004 1.4820001 14659987
0.47600001 -0.063000001 1.4840001 7044250
0.52700001 -0.057000004 1.48 7569036
0.53400004 -0.057000004 1.4810001 7108485
0.54100001 -0.058000002 1.4820001 7635086
0.54800004 -0.058000002 1.483 6845057
0.55500001 -0.058000002 1.483 6647423
0.56100005 -0.058000002 1.483 6845058
0.56800002 -0.058000002 1.483 7634318
0.57500005 -0.058000002 1.4820001 6976897
0.58100003 -0.058000002 1.4810001 7437708
0.588 -0.058000002 1.4820001 7569810
0.59400004 -0.058000002 1.48 7438220
0.60100001 -0.058000002 1.48 7503244
0.60800004 -0.058000002 1.48 7503243
0.61500001 -0.058000002 1.48 7568522
0.62200004 -0.058000002 1.48 7700108
0.63600004 -0.058000002 1.48 7766156
0.64300001 -0.058000002 1.48 8029842
0.65000004 -0.059000004 1.48 7963281
0.65700001 -0.059000004 1.48 8029587
0.66400003 -0.059000004 1.4810001 7832208
0.671 -0.059000004 1.4810001 7898258
0.67900002 -0.059000004 1.4810001 8358551
0.68600005 -0.059000004 1.4820001 8885667
0.69300002 -0.059000004 1.4820001 8820390
0.70200002 -0.059000004 1.4840001 8623268
0.86100006 -0.055000003 1.4840001 7963523
0.86800003 -0.055000003 1.483 7766147
0.87700003 -0.055000003 1.4840001 7963523
0.88500005 -0.055000003 1.4840001 7963523
0.89300007 -0.055000003 1.4840001 7831936
0.92500007 -0.055000003 1.483 7765116
0.93400002 -0.055000003 1.483 7700093
0.94200003 -0.056000002 1.483 7831678
0.95000005 -0.056000002 1.4820001 8029317
0.95700002 -0.056000002 1.48 8095366
0.96500003 -0.056000002 1.48 8095622
1.0090001 -0.056000002 1.48 7899270
1.018 -0.057000004 1.4810001 8162185
1.029 -0.057000004 1.4840001 8359820
1.0370001 -0.057000004 1.483 8491406
1.054 -0.057000004 1.4820001 8294030
0.55300003 -0.051000003 1.48 8290177
0.71400005 -0.053000003 1.48 8422533
0.72200006 -0.053000003 1.4810001 8225411
0.73000002 -0.053000003 1.483 8291460
0.77600002 -0.054000001 1.4840001 8423044
0.78300005 -0.054000001 1.4840001 8488838
0.79000002 -0.054000001 1.483 8620425
0.79700005 -0.054000001 1.4820001 8423046
0.80500007 -0.054000001 1.4820001 8357253
0.81300002 -0.054000001 1.483 8817289
0.82200003 -0.054000001 1.4840001 8751496
0.059000004 -0.049000002 1.4820001 16769738
0.73600006 -0.047000002 1.48 8356740
0.74400002 -0.047000002 1.48 8357253
0.75800002 -0.047000002 1.48 8488326
0.82000005 -0.048 1.4810001 8619392
0.82800007 -0.048 1.4810001 8553601
0.83500004 -0.048 1.4810001 8619395
0.84400004 -0.048 1.4820001 8487809
0.85100001 -0.048 1.4810001 8554115
0.89900005 -0.048 1.48 8422785
0.90700006 -0.048 1.48 8356992
0.91500002 -0.049000002 1.48 8291199
0.66400003 -0.040000003 1.48 8487037
0.671 -0.040000003 1.48 8552828
0.81900007 -0.041000001 1.48 8684928
0.82800007 -0.041000001 1.4810001 8619647
0.83500004 -0.041000001 1.4810001 8553599
0.84300005 -0.041000001 1.4810001 8619392
0.85100001 -0.041000001 1.4810001 8619392
0.85800004 -0.041000001 1.48 8487806
0.87400001 -0.042000003 1.48 8553853
0.89100003 -0.042000003 1.48 8356732
0.89900005 -0.042000003 1.48 8356990
0.90700006 -0.042000003 1.48 8422268
0.91500002 -0.042000003 1.48 8356989
0.92300004 -0.042000003 1.48 8290682
0.93200004 -0.042000003 1.48 8159610
0.53300005 -0.039000001 1.48 8223095
0.55300003 -0.039000001 1.48 8420473
0.56 -0.039000001 1.48 8814465
0.92400002 -0.036000002 1.4820001 8554625
0.93400002 -0.036000002 1.4840001 8685440
0.94100004 -0.036000002 1.4820001 8553596
0.95000005 -0.036000002 1.4820001 8357499
0.48800004 -0.033 1.4820001 4276033
0.49500003 -0.033 1.483 4276033
0.50100005 -0.033 1.4820001 4801865
0.50700003 -0.033 1.4820001 5130570
0.514 -0.033 1.4820001 5129796
0.52100003 -0.033 1.4820001 7366756
0.528 -0.033 1.483 7364956
0.53400004 -0.033 1.483 5392453
0.54100001 -0.033 1.4820001 5656653
0.54800004 -0.033 1.483 6182226
0.55400002 -0.033 1.4820001 6642001
0.56100005 -0.033 1.483 6576463
0.56800002 -0.033 1.483 5655368
0.57500005 -0.033 1.483 6050638
0.58100003 -0.033 1.4820001 5787209
0.58700001 -0.033 1.48 6445135
0.59400004 -0.033 1.48 6642000
0.64300001 -0.034000002 1.48 6841956
0.65700001 -0.034000002 1.4810001 7629671
0.66400003 -0.034000002 1.4810001 7630953
0.67200005 -0.034000002 1.4820001 7894381
0.67800003 -0.034000002 1.48 8157038
0.78800005 -0.034000002 1.48 9277322
0.80400002 -0.035 1.48 8553598
0.81100005 -0.035 1.48 8487548
0.82100004 -0.035 1.483 9013379
0.82900006 -0.035 1.483 8882306
0.83600003 -0.035 1.4820001 8817026
0.84400004 -0.035 1.483 8488576
0.85200006 -0.035 1.4820001 8882307
0.85900003 -0.035 1.4810001 8553854
0.86600006 -0.035 1.48 8685184
0.87500006 -0.035 1.4810001 8750721
0.88300002 -0.035 1.4810001 8488061
0.89200002 -0.035 1.4820001 8488318
0.90000004 -0.035 1.483 8619647
0.90900004 -0.035 1.483 8882819
0.91700006 -0.035 1.483 8750978
0.70100003 -0.028000001 1.4840001 9993318
0.708 -0.028000001 1.4820001 10322283
0.72200006 -0.028000001 1.4810001 9336679
0.76600003 -0.028000001 1.4810001 1381905
0.77500004 -0.028000001 1.483 11512744
0.78200006 -0.028000001 1.483 2434080
0.79100001 -0.028000001 1.4840001 1776151
0.79800004 -0.028000001 1.483 2631972
0.80500007 -0.028000001 1.483 2960424
0.95800006 -0.029000001 1.4820001 3878186
0.96500003 -0.029000001 1.48 5843246
-1.107 -0.023000002 1.48 6250073
-1.1170001 -0.010000001 1.48 6447710
0.059000004 0.0040000002 1.48 14727328
0.059000004 0.015000001 1.48 14202784
0.50700003 0.065000005 1.4810001 5396584
-0.95400006 0.20400001 1.4810001 7036493
-0.94500005 0.20400001 1.48 7299150
-0.89600003 0.20200001 1.4810001 9861467
-0.87100005 0.2 1.48 10650978
-0.86400002 0.2 1.4820001 10650979
-0.85500002 0.2 1.4810001 10585186
-0.84700006 0.20600002 1.48 7363652
-0.84100002 0.21300001 1.483 4339495
0.47100002 0.21100001 1.48 8223621
0.47800002 0.21200001 1.4810001 8158083
0.48400003 0.21200001 1.4820001 8027011
0.49100003 0.21200001 1.4820001 8026752
0.49800003 0.21200001 1.4820001 8026748
0.50400001 0.21300001 1.4810001 9407370
0.51100004 0.21300001 1.4810001 6842474
0.51800001 0.21300001 1.4820001 6973547
-0.84000003 0.21900001 1.4810001 4534570
0.45800003 0.21700001 1.4810001 8289154
0.46500003 0.21800001 1.4820001 8223876
0.47200003 0.21800001 1.4840001 8289669
0.47900003 0.21800001 1.4840001 8158083
0.49200001 0.21900001 1.4840001 8223874
0.505 0.21900001 1.4840001 8815233
0.44500002 0.223 1.4810001 8289414
0.45200002 0.22400001 1.4820001 8289669
-0.84100002 0.22600001 1.4810001 4271655
0.42600003 0.22900002 1.48 8355208
0.43300003 0.22900002 1.4810001 8355208
0.43900001 0.22900002 1.4820001 8289414
0.40700001 0.23400001 1.48 8420743
0.41400003 0.23500001 1.4810001 8421001
0.42000002 0.23500001 1.4820001 8355208
0.42700002 0.23500001 1.483 8355208
0.43400002 0.23600002 1.4840001 8289672
0.38800001 0.24000001 1.48 8420744
0.39500001 0.24000001 1.4810001 8354951
0.40100002 0.24100001 1.4820001 8420744
0.40800002 0.24100001 1.483 8289158
0.41500002 0.24100001 1.4840001 8355208
0.37600002 0.24600001 1.48 8486537
0.38200003 0.24600001 1.4810001 8355208
0.38900003 0.24700001 1.483 8420744
0.39600003 0.24700001 1.4840001 8420744
0.36300001 0.252 1.48 8552330
0.37 0.252 1.4810001 8421000
0.37600002 0.252 1.4820001 8487048
0.38300002 0.25300002 1.4840001 8355206
0.34500003 0.257 1.48 7959420
0.35100001 0.25800002 1.4810001 8551558
0.35800001 0.25800002 1.483 8617608
0.36400002 0.25800002 1.4840001 8617353
0.33200002 0.26300001 1.4810001 8748939
0.33900002 0.264 1.4820001 8748939
0.34600002 0.264 1.4840001 8551560
0.31400001 0.26900002 1.48 8880525
0.32000002 0.26900002 1.4810001 8748939
0.289 0.27400002 1.48 8946317
0.32700002 0.27000001 1.483 8748939
0.333 0.27000001 1.4840001 8683146
0.296 0.27500001 1.4810001 8946317
0.30200002 0.27500001 1.4810001 8880523
0.30800003 0.27500001 1.4820001 8814730
0.31500003 0.27600002 1.483 8880523
0.32100001 0.27600002 1.4840001 8814730
0.27700001 0.28 1.48 9012109
0.28300002 0.28100002 1.4810001 8815500
0.29000002 0.28100002 1.483 8946316
0.296 0.28100002 1.4840001 9012109
0.27100003 0.287 1.4820001 8946316
0.27800003 0.287 1.483 8946316
0.25300002 0.29200003 1.4810001 9143182
0.259 0.29200003 1.4820001 9143182
0.26500002 0.29300001 1.483 9077646
0.042000003 0.29500002 1.48 14469820
0.23500001 0.29800001 1.4810001 9143182
0.24100001 0.29800001 1.4820001 9143182
0.24700001 0.29900002 1.483 9208975
0.21600001 0.30400002 1.48 9209485
0.223 0.30400002 1.4810001 9143949
0.22900002 0.30400002 1.4820001 9209742
0.19800001 0.30900002 1.48 9341072
0.23500001 0.30500001 1.4840001 9275022
0.042000003 0.31400001 1.483 14535613
0.20400001 0.31 1.4810001 9340815
0.21100001 0.31 1.483 9340815
0.21700001 0.31100002 1.4840001 9275022
0.186 0.31500003 1.4810001 9406608
0.193 0.31600001 1.4820001 9406608
0.19900002 0.31600001 1.4840001 9340815
0.16800001 0.32100001 1.48 9406608
0.17400001 0.32200003 1.4820001 9406608
0.18100001 0.32200003 1.483 9537424
0.15000001 0.32700002 1.48 9669780
0.156 0.32800001 1.4820001 9603987
0.162 0.32800001 1.4820001 9603987
0.16900001 0.32800001 1.4840001 9734803
0.132 0.333 1.48 9669780
0.13800001 0.333 1.4810001 9669780
0.14400001 0.33400002 1.4820001 9603987
0.15100001 0.33400002 1.4840001 9603987
0.048 0.33800003 1.48 13351603
0.12 0.33900002 1.48 9801109
0.126 0.34 1.4820001 9932182
0.133 0.34 1.483 9866389
0.13900001 0.34 1.4840001 9866389
0.048 0.34500003 1.483 13286326
0.10200001 0.34500003 1.48 10063768
0.108 0.34600002 1.4820001 10063767
0.115 0.34600002 1.483 9932182
0.12100001 0.34600002 1.483 9866389
0.084000006 0.35100001 1.48 10064021
0.090000004 0.35200003 1.4820001 10129814
0.097000003 0.35200003 1.483 10064021
0.10300001 0.35200003 1.4840001 9997974
0.054000001 0.35800001 1.4820001 9998744
0.060000002 0.35700002 1.48 10064537
0.066 0.35700002 1.48 10064537
0.072000004 0.35700002 1.4810001 9932951
0.078000002 0.35800001 1.4820001 9998487
0.085000001 0.35800001 1.4840001 10129814
0.055000003 0.36400002 1.4840001 10129813
0.060000002 0.36400002 1.4820001 10195607
0.067000002 0.36400002 1.483 10064020
0.073000006 0.36400002 1.4840001 10129556
0.32500002 -0.38100001 1.485 14341588
0.33100003 -0.38100001 1.485 12893883
0.287 -0.37400001 1.4870001 14997972
0.29300001 -0.37400001 1.4860001 14800853
0.24100001 -0.24800001 1.4860001 15910569
0.24100001 -0.24300002 1.488 15778474
0.24600001 -0.23 1.485 13343104
0.24600001 -0.22400001 1.4860001 14329481
0.24000001 -0.21800001 1.488 13278331
0.17900001 -0.21100001 1.4860001 16640214
0.19800001 -0.21100001 1.4870001 10385509
0.21000001 -0.21200001 1.4890001 11568235
0.17900001 -0.133 1.4870001 16108720
0.17900001 -0.097000003 1.4870001 16632493
0.178 -0.091000006 1.485 16566959
0.47000003 -0.094000004 1.485 7109272
-1.087 -0.078000002 1.4890001 6776680
0.48300001 -0.063000001 1.4870001 7044250
0.49000001 -0.064000003 1.4890001 7044764
0.49700001 -0.064000003 1.488 7110557
0.50300002 -0.064000003 1.4870001 7636641
0.51000005 -0.064000003 1.488 7965604
0.51600003 -0.064000003 1.488 8097189
0.523 -0.064000003 1.4870001 8096674
0.53000003 -0.064000003 1.4890001 8162982
0.80900002 -0.061000004 1.4890001 8949906
0.81700003 -0.061000004 1.4890001 7041651
0.97100008 -0.063000001 1.488 9018273
0.97800004 -0.063000001 1.4860001 9018271
0.98600006 -0.063000001 1.485 8887201
0.99500006 -0.063000001 1.4860001 8887201
1.0040001 -0.063000001 1.4860001 9084324
1.013 -0.063000001 1.4870001 8953250
1.0600001 -0.064000003 1.4890001 8361370
1.0680001 -0.064000003 1.488 8295831
0.70900005 -0.059000004 1.485 8623010
0.71800005 -0.060000002 1.4870001 9017250
0.84700006 -0.055000003 1.4870001 7501429
0.85400003 -0.055000003 1.4860001 7567993
0.90200007 -0.055000003 1.4860001 7634300
0.91000003 -0.055000003 1.485 7568507
0.91800004 -0.055000003 1.485 7897472
1.0480001 -0.057000004 1.4860001 8491408
0.73900002 -0.053000003 1.485 8028289
0.74700004 -0.053000003 1.4860001 8488838
0.75400001 -0.054000001 1.4860001 8488584
0.76200002 -0.054000001 1.4860001 8356998
0.76900005 -0.054000001 1.485 8488323
0.83000004 -0.054000001 1.485 8553603
0.83800006 -0.054000001 1.4860001 7961980
0.59000003 -0.027000001 1.488 10650732
0.611 -0.027000001 1.488 10519662
0.63100004 -0.027000001 1.485 10716526
0.63800001 -0.027000001 1.4870001 10519403
0.67500001 -0.028000001 1.4890001 13155504
0.69600004 -0.028000001 1.4890001 10190696
0.83000004 -0.028000001 1.4860001 3092009
0.83900005 -0.028000001 1.4870001 3223597
0.84700006 -0.029000001 1.488 2829097
0.85400003 -0.029000001 1.4870001 1579284
0.86200005 -0.029000001 1.4860001 3947832
0.88700002 -0.029000001 1.4870001 4605505
0.89500004 -0.029000001 1.488 4211003
0.90300006 -0.029000001 1.4870001 5460816
0.91200006 -0.029000001 1.488 3026476
0.92900002 -0.029000001 1.4890001 2433823
0.93600005 -0.029000001 1.488 3486511
0.94500005 -0.029000001 1.488 3420717
0.95100003 -0.029000001 1.485 3223853
-1.113 -0.017000001 1.488 6447453
0.47000003 0.028000001 1.4860001 4738659
0.47000003 0.047000002 1.488 5001315
0.46900001 0.053000003 1.485 4935780
0.51000005 0.059000004 1.488 4870500
0.47600001 0.065000005 1.4860001 5198952
0.48300001 0.065000005 1.488 5198952
0.49000001 0.065000005 1.488 5198952
0.49600002 0.065000005 1.4870001 5133672
0.50200003 0.065000005 1.485 5067878
0.48600003 0.21900001 1.485 8092547
0.49900001 0.21900001 1.485 6315615
0.46000001 0.22400001 1.485 8223875
0.51200002 0.22000001 1.485 6973545
0.46600002 0.22500001 1.4860001 8355462
0.47400004 0.22500001 1.488 8289669
0.48000002 0.22500001 1.488 8289668
0.48700002 0.22600001 1.4890001 8158083
0.49300003 0.22600001 1.488 8092288
0.5 0.22600001 1.4870001 4276032
0.50600004 0.22600001 1.4870001 7762543
0.514 0.22600001 1.4890001 7039338
0.44700003 0.23 1.485 8289670
0.45400003 0.23 1.4860001 8355462
0.46100003 0.23100001 1.488 8289669
0.46800002 0.23100001 1.4890001 8355462
0.44100001 0.23600002 1.485 8355463
0.44800001 0.23700002 1.4870001 8289926
0.45500001 0.23700002 1.4890001 8290180
0.42200002 0.24200001 1.4860001 8355208
0.42800003 0.24200001 1.4870001 8355208
0.43500003 0.24300002 1.488 8289672
0.44200003 0.24300002 1.4890001 8355208
0.40200001 0.24700001 1.485 8486537
0.40900001 0.24800001 1.4860001 8354951
0.41600001 0.24800001 1.4870001 8420743
0.42300001 0.24900001 1.4890001 8421001
0.042000003 0.25400001 1.485 14470336
0.39000002 0.25300002 1.485 8354951
0.39700001 0.25400001 1.4870001 8420744
0.40300003 0.25400001 1.488 8354951
0.37100002 0.259 1.485 8551815
0.37800002 0.259 1.4860001 8486535
0.35200003 0.264 1.485 8617351
0.384 0.26000002 1.4870001 8486535
0.39100003 0.26000002 1.488 8486535
0.35900003 0.26500002 1.4860001 8025472
0.36500001 0.26500002 1.4870001 8486279
0.37200001 0.266 1.488 8551558
0.37800002 0.266 1.4890001 8617351
0.34 0.27000001 1.485 8748937
0.347 0.27100003 1.4870001 8683144
0.35300002 0.27100003 1.488 8683401
0.36000001 0.27200001 1.4890001 8617351
0.32700002 0.27600002 1.485 8814730
0.33400002 0.27700001 1.4870001 8814730
0.34100002 0.27700001 1.4890001 8748937
0.303 0.28200001 1.485 8880523
0.30900002 0.28200001 1.4860001 8880523
0.31500003 0.28200001 1.4860001 8880523
0.32200003 0.28300002 1.488 8814984
0.32800001 0.28300002 1.4890001 8814984
-0.83900005 0.28600001 1.4860001 3812134
0.28400001 0.287 1.485 8880523
0.29100001 0.28800002 1.4860001 8946316
0.29700002 0.28800002 1.488 8946316
0.303 0.289 1.488 8814730
0.31 0.289 1.4890001 8880777
-0.84100002 0.29300001 1.488 3614755
0.27200001 0.29300001 1.485 9012109
0.27900001 0.294 1.4870001 8946316
0.28500003 0.294 1.488 9012109
0.25400001 0.29900002 1.485 9077389
0.26000002 0.29900002 1.4860001 9077645
-0.84200007 0.30000001 1.488 3549729
0.266 0.30000001 1.4870001 8946315
0.273 0.30000001 1.4890001 9077901
-0.84100002 0.30600002 1.4860001 3548960
0.042000003 0.30900002 1.488 14601406
0.24200001 0.30500001 1.4860001 9143436
0.24800001 0.30600002 1.4870001 9143436
0.25500003 0.30600002 1.4890001 9209229
-0.84100002 0.31300002 1.485 3287070
0.223 0.31100002 1.485 9275022
0.23 0.31100002 1.4860001 9209229
0.23600002 0.31200001 1.488 9275022
0.24200001 0.31200001 1.4890001 9209229
0.20500001 0.317 1.485 9340815
0.21100001 0.317 1.4860001 9406608
0.21800001 0.317 1.4870001 9406608
0.22400001 0.31800002 1.488 9340815
0.23 0.31800002 1.4890001 9275022
0.18700001 0.32300001 1.485 9537424
0.193 0.32300001 1.4870001 9471631
0.2 0.32300001 1.488 9537424
0.20600002 0.324 1.4890001 9471631
0.17500001 0.32900003 1.485 9603217
0.18100001 0.32900003 1.4870001 9669010
0.18700001 0.32900003 1.488 9603217
0.15700001 0.33400002 1.485 9800596
0.163 0.33500001 1.4860001 9603217
0.16900001 0.33500001 1.488 9669010
0.17600001 0.33600003 1.4890001 9669010
0.14500001 0.34100002 1.4860001 9866389
0.15100001 0.34100002 1.488 9800596
0.15700001 0.34200001 1.4890001 9800596
0.127 0.34600002 1.485 9932181
0.133 0.347 1.4870001 9866389
0.13900001 0.347 1.488 9800596
0.049000002 0.35200003 1.485 13154738
0.109 0.35300002 1.4860001 9997974
0.115 0.35300002 1.4870001 9998228
0.12100001 0.35300002 1.4870001 9932435
0.127 0.354 1.4890001 9800849
0.049000002 0.35800001 1.4860001 13023152
0.091000006 0.35900003 1.4860001 10064021
0.097000003 0.35900003 1.4870001 9998744
0.10300001 0.35900003 1.488 9932951
0.109 0.36000001 1.4890001 9997974
0.049000002 0.36500001 1.4870001 12891566
0.079000004 0.36500001 1.4860001 10129556
0.085000001 0.36500001 1.488 9998227
0.055000003 0.37200001 1.488 10195094
0.061000004 0.37100002 1.4860001 10195094
0.067000002 0.37100002 1.4870001 10195094
0.073000006 0.37200001 1.488 10195094
0.41100001 -0.40600002 1.493 10127232
0.36500001 -0.39100003 1.493 14932953
0.37100002 -0.39200002 1.4940001 15129558
0.32000002 -0.38300002 1.493 15261664
0.27500001 -0.37500003 1.4920001 15326938
0.28200001 -0.37500003 1.4920001 15392473
0.23800001 -0.36700001 1.4910001 14795954
0.23600002 -0.273 1.4900001 15780266
0.24100001 -0.23700002 1.4920001 15253160
0.24100001 -0.23100001 1.493 13936530
0.24100001 -0.22500001 1.493 9593675
0.17400001 -0.163 1.4920001 16639451
0.17900001 -0.109 1.4910001 16632238
0.47300002 -0.1 1.4940001 9608634
-1.08 -0.071000002 1.4920001 6579811
0.16700001 -0.068000004 1.4920001 14856852
0.47900003 -0.07 1.493 7043995
0.57900006 -0.065000005 1.493 7570329
0.58500004 -0.065000005 1.4920001 7899037
0.59200001 -0.065000005 1.4920001 7438486
0.59900004 -0.065000005 1.4920001 7306899
0.60600001 -0.065000005 1.493 7832726
0.62100005 -0.065000005 1.4940001 4476768
0.62700003 -0.065000005 1.493 2700358
0.63500005 -0.065000005 1.4940001 2568515
0.64200002 -0.065000005 1.4940001 3753044
0.648 -0.065000005 1.493 5134184
0.65600002 -0.065000005 1.4940001 5924215
0.66200006 -0.065000005 1.4920001 8424348
0.66900003 -0.065000005 1.4910001 7174537
0.67600006 -0.066 1.4910001 7174279
0.68400002 -0.066 1.4920001 4214365
0.69100004 -0.066 1.4920001 5530738
-1.0780001 -0.064000003 1.4900001 6250074
0.066 -0.061000004 1.4900001 16111038
0.537 -0.064000003 1.4900001 7768224
0.54400003 -0.064000003 1.4910001 7636125
0.551 -0.064000003 1.4900001 7504794
0.55800003 -0.064000003 1.4910001 7372951
0.56400001 -0.064000003 1.4910001 7504537
0.57200003 -0.064000003 1.4920001 7438490
0.79500002 -0.061000004 1.4920001 9608350
0.80200005 -0.061000004 1.4900001 9542558
0.82700002 -0.061000004 1.493 5923169
0.87400001 -0.062000003 1.493 8360345
0.88200003 -0.062000003 1.4920001 8952227
0.92400002 -0.062000003 1.4940001 8952224
0.93200004 -0.062000003 1.493 8886946
0.94000006 -0.063000001 1.493 8886945
0.94800007 -0.063000001 1.493 8952738
0.95600003 -0.063000001 1.4910001 8952481
0.96400005 -0.063000001 1.4910001 8952224
1.044 -0.064000003 1.4920001 8821662
1.054 -0.064000003 1.4940001 8755359
0.060000002 -0.056000002 1.4940001 16769480
0.72700006 -0.060000002 1.4920001 9279908
0.51700002 -0.027000001 1.4910001 2499103
0.59900004 -0.027000001 1.4920001 10388076
0.60500002 -0.027000001 1.4900001 10650991
0.61900002 -0.027000001 1.4910001 10387819
0.648 -0.028000001 1.493 10716783
0.69200003 -0.028000001 1.4940001 10060658
0.87200004 -0.029000001 1.4900001 5987158
0.88200003 -0.029000001 1.493 4342077
0.92100006 -0.029000001 1.4900001 2105117
-1.1160001 -0.010000001 1.4910001 6513505
-1.1160001 -0.003 1.4920001 6645604
-1.1160001 0.0040000002 1.4920001 6776679
0.47100002 0.034000002 1.4910001 4870752
0.47100002 0.040000003 1.4910001 4934752
0.47900003 0.059000004 1.4940001 5067366
0.50400001 0.059000004 1.4920001 5002596
-0.85200006 0.20100001 1.4900001 7823687
-0.84500003 0.20700002 1.4910001 6377538
0.52100003 0.22100002 1.4910001 7039084
0.47500002 0.23200001 1.4910001 8355462
0.48100004 0.23200001 1.4910001 8289669
0.48800004 0.23200001 1.4920001 8158082
0.49500003 0.23200001 1.4910001 8158080
0.50100005 0.23300001 1.4910001 6381407
0.50800002 0.23300001 1.4910001 7236455
0.46200001 0.23800001 1.4910001 8289926
0.46900001 0.23800001 1.493 8355719
0.47600001 0.23800001 1.4940001 8355462
0.49600002 0.23900001 1.4940001 7960700
0.50200003 0.23900001 1.4940001 8947077
0.44900003 0.24300002 1.4910001 8355462
0.45600003 0.24400002 1.493 8421255
0.46300003 0.24400002 1.4940001 8289669
0.42900002 0.24900001 1.4900001 8289670
0.43600002 0.24900001 1.4910001 8420743
0.44300002 0.25 1.4920001 8552328
0.45000002 0.25 1.4940001 8420742
0.41000003 0.25500003 1.4900001 8354949
0.41700003 0.25500003 1.4910001 8223619
0.42400002 0.25500003 1.4920001 8420742
0.43100002 0.25600001 1.493 8355462
0.43700001 0.25600001 1.4940001 8486535
0.39800003 0.26000002 1.4900001 8420742
0.40400001 0.26100001 1.4910001 8420742
0.41100001 0.26100001 1.493 8289155
0.38500002 0.266 1.4900001 8552328
0.39200002 0.26700002 1.4920001 8486535
0.39900002 0.26700002 1.493 8420742
0.36600003 0.27200001 1.4910001 8617351
0.37300003 0.273 1.4920001 8552069
0.37900001 0.273 1.4920001 8486533
0.38600001 0.273 1.4940001 8486535
0.34800002 0.27800003 1.4910001 8683398
0.354 0.27800003 1.4920001 8683398
0.36100003 0.27900001 1.493 8683144
-0.84100002 0.28 1.4900001 3943460
0.33500001 0.28400001 1.4910001 8748937
0.34200001 0.28400001 1.4920001 8748937
0.31600001 0.289 1.4900001 8880777
0.34900001 0.28500003 1.4940001 8683398
0.32300001 0.29000002 1.4910001 8814984
0.33000001 0.29000002 1.493 8814984
0.33600003 0.29100001 1.4940001 8814727
0.29200003 0.29500002 1.4900001 8946316
0.29800001 0.29500002 1.4910001 8946316
0.30400002 0.29500002 1.4910001 8946316
0.31100002 0.296 1.4920001 8814730
0.317 0.296 1.4940001 8880523
0.324 0.296 1.4940001 8880523
0.27900001 0.30100003 1.4900001 8881035
0.28600001 0.30100003 1.4910001 8880523
0.29200003 0.30200002 1.493 9012109
0.29900002 0.30200002 1.4940001 8946571
0.26100001 0.30700001 1.4900001 9077901
0.26700002 0.30700001 1.4910001 9012108
0.27400002 0.30700001 1.4920001 8946828
0.28 0.30800003 1.493 8815499
0.28600001 0.30800003 1.4940001 8946570
0.24900001 0.31300002 1.4910001 9143436
0.25500003 0.31300002 1.493 9143436
0.23700002 0.31900001 1.4910001 9275535
0.24300002 0.31900001 1.4920001 9209485
0.21200001 0.324 1.4900001 9471631
0.24900001 0.32000002 1.4940001 9143949
0.043000001 0.32800001 1.4910001 14469562
0.21800001 0.32500002 1.4920001 9340815
0.22400001 0.32500002 1.4910001 9275022
0.23100001 0.32500002 1.493 9275022
0.23700002 0.32600001 1.4940001 9405838
0.19400001 0.33000001 1.4910001 9603217
0.2 0.33100003 1.4920001 9537424
0.20600002 0.33100003 1.493 9537424
0.21300001 0.33100003 1.4940001 9406352
0.18200001 0.33600003 1.4900001 9472401
0.18800001 0.33700001 1.4920001 9669010
0.164 0.34200001 1.4900001 9669010
0.17 0.34200001 1.4920001 9734803
0.17600001 0.34300002 1.493 9669010
0.18200001 0.34300002 1.4940001 9603216
0.14500001 0.34800002 1.4900001 9866389
0.15200001 0.34800002 1.4920001 9866389
0.15800001 0.34900001 1.493 9734803
0.164 0.34900001 1.4940001 9734803
0.133 0.354 1.4910001 9866642
0.14 0.35500002 1.4920001 9800849
0.14600001 0.35500002 1.4940001 9800849
0.115 0.36000001 1.4900001 9866388
0.12100001 0.36000001 1.4910001 9932181
0.12800001 0.36100003 1.4940001 9866388
0.091000006 0.36600003 1.4900001 9998228
0.097000003 0.36600003 1.4910001 9998228
0.10300001 0.36700001 1.4920001 9932435
0.109 0.36700001 1.493 9932181
0.116 0.36700001 1.4940001 9932181
0.049000002 0.37200001 1.4910001 12956845
0.079000004 0.37200001 1.4910001 10129813
0.085000001 0.37300003 1.4920001 10064020
0.091000006 0.37300003 1.4940001 10064020
0.055000003 0.37900001 1.4920001 10129301
0.061000004 0.37800002 1.4900001 10129301
0.067000002 0.37900001 1.4910001 10195094
0.073000006 0.37900001 1.493 10195094
0.31400001 -0.384 1.4960001 14999262
0.252 -0.37600002 1.4990001 10390401
0.264 -0.37600002 1.4970001 12497839
0.27000001 -0.37600002 1.4960001 14735316
0.22600001 -0.35600001 1.4990001 12297365
0.23500001 -0.21900001 1.4950001 12751987
0.18000001 -0.12800001 1.4960001 15980221
0.18000001 -0.12200001 1.498 16179653
0.18000001 -0.116 1.4990001 16767936
-1.0940001 -0.086000003 1.4990001 8291969
-1.0830001 -0.079000004 1.4960001 6710888
0.17300001 -0.074000001 1.4950001 14659724
1.067 -0.071000002 1.4990001 8294034
1.0760001 -0.072000004 1.4990001 7174266
0.072000004 -0.068000004 1.498 13873049
0.078000002 -0.068000004 1.4950001 13609877
0.084000006 -0.068000004 1.498 12293505
0.090000004 -0.068000004 1.498 14858913
0.096000001 -0.068000004 1.498 14791832
0.10200001 -0.068000004 1.4990001 14988696
0.108 -0.068000004 1.4970001 14923417
0.11400001 -0.068000004 1.498 14857883
0.12 -0.068000004 1.498 14923676
0.126 -0.068000004 1.4990001 14857624
0.132 -0.068000004 1.4990001 14792088
0.14400001 -0.068000004 1.4990001 14792088
0.155 -0.068000004 1.4960001 14791829
0.162 -0.068000004 1.4960001 14791316
0.61500001 -0.065000005 1.4960001 7437710
0.70000005 -0.066 1.4950001 8820647
0.70700002 -0.066 1.4960001 8951462
0.79000002 -0.061000004 1.4960001 9673886
0.83700001 -0.061000004 1.4970001 5594719
0.84500003 -0.061000004 1.498 5989734
0.85300004 -0.062000003 1.498 6384492
0.86100006 -0.062000003 1.498 7701640
0.86700004 -0.062000003 1.4950001 8030866
0.89300007 -0.062000003 1.4970001 9018019
0.90100002 -0.062000003 1.4970001 9215397
0.90900004 -0.062000003 1.4970001 9412006
0.91600007 -0.062000003 1.4950001 9018018
1.028 -0.064000003 1.4950001 8887457
1.0370001 -0.064000003 1.4950001 8755871
-1.082 -0.058000002 1.4960001 6315095
0.73600006 -0.060000002 1.4950001 9871529
0.74600005 -0.060000002 1.4990001 9673891
-1.1090001 -0.030000001 1.4950001 6184281
0.52700001 -0.027000001 1.4990001 10256234
0.58100003 -0.027000001 1.498 4537142
0.62800002 -0.027000001 1.4950001 10387818
0.671 -0.028000001 1.4960001 10059113
0.054000001 0.022000002 1.4970001 14469570
0.50600004 0.053000003 1.498 5133417
0.48600003 0.059000004 1.4970001 5133159
0.49300003 0.059000004 1.4970001 5133159
0.49900001 0.059000004 1.4960001 5002344
-0.85000002 0.20200001 1.4990001 8153945
0.52400005 0.22800002 1.498 6973547
0.51600003 0.23400001 1.4960001 7039083
0.48300001 0.23900001 1.4950001 8158083
0.49000001 0.23900001 1.4950001 8158594
0.51000005 0.24000001 1.4950001 6973027
0.51700002 0.24000001 1.498 6906984
0.47000003 0.245 1.4960001 8289669
0.47700003 0.245 1.498 8289669
0.48400003 0.24600001 1.498 8289412
0.49100003 0.24600001 1.498 8223362
0.49700001 0.24600001 1.498 7894136
0.50400001 0.24600001 1.4970001 9670286
0.51100004 0.24700001 1.498 7300965
0.45700002 0.25100002 1.4960001 8354949
0.46400002 0.25100002 1.4970001 8355462
0.505 0.25300002 1.4990001 5986134
0.44400004 0.25600001 1.4950001 8223363
0.45100003 0.257 1.4970001 8420742
0.45800003 0.25800002 1.4990001 8354947
-0.84400004 0.26100001 1.498 3746852
0.41800001 0.26200002 1.4950001 8420742
0.42500001 0.26200002 1.4960001 8355205
0.43200001 0.26300001 1.4970001 8420742
0.43900001 0.26300001 1.498 8355462
0.44600001 0.26300001 1.4990001 8421255
-0.84400004 0.26800001 1.4960001 3943976
0.40600002 0.26800001 1.4950001 8355462
0.41300002 0.26800001 1.4970001 8354949
0.41900003 0.26900002 1.498 8420742
0.42600003 0.26900002 1.4990001 8420742
0.39300001 0.27400002 1.4960001 8420742
0.40000001 0.27400002 1.4970001 8289156
-0.84400004 0.27500001 1.4960001 3877925
0.36800003 0.27900001 1.4950001 8683144
0.40700001 0.27500001 1.4990001 8420742
0.37400001 0.28 1.4960001 8617351
0.38100001 0.28 1.498 8683144
0.38800001 0.28 1.4990001 8748937
0.35500002 0.28500003 1.4960001 8814984
0.36200002 0.28600001 1.4970001 8748937
0.36900002 0.28600001 1.4990001 8683144
0.34300002 0.29100001 1.4960001 8749191
0.35000002 0.29200003 1.498 8814727
0.33100003 0.29700002 1.4970001 8814729
0.33700001 0.29800001 1.498 8683657
0.30500001 0.30200002 1.4950001 8880777
0.31200001 0.303 1.4960001 8946316
0.31800002 0.303 1.498 8946316
0.32500002 0.30400002 1.4990001 8880523
0.29300001 0.30900002 1.4960001 9012363
0.29900002 0.30900002 1.4970001 8946570
0.30600002 0.30900002 1.498 8946569
0.26200002 0.31400001 1.4950001 9143179
0.26800001 0.31400001 1.4950001 9077643
0.27500001 0.31500003 1.4970001 9077643
0.28100002 0.31500003 1.498 9143436
0.287 0.31500003 1.498 9012363
0.043000001 0.32300001 1.4950001 14470076
0.25600001 0.32000002 1.4960001 9078156
0.26300001 0.32100001 1.498 9209228
0.26900002 0.32100001 1.4990001 9077642
0.24400002 0.32600001 1.4960001 9274765
0.25 0.32600001 1.4970001 9209229
0.21900001 0.33200002 1.4960001 9406608
0.22500001 0.33200002 1.4950001 9406608
0.23200001 0.33200002 1.4970001 9406095
0.23800001 0.333 1.498 9471631
0.043000001 0.33600003 1.4970001 14404540
0.19500001 0.33700001 1.4950001 9669009
0.20100001 0.33800003 1.4960001 9603216
0.20700002 0.33800003 1.4970001 9340557
0.21300001 0.33800003 1.498 9537936
0.18900001 0.34400001 1.4950001 9669009
0.19500001 0.34400001 1.498 9603216
0.20100001 0.34500003 1.4990001 9602959
0.17 0.35000002 1.4960001 9669010
0.177 0.35000002 1.4960001 9669010
0.18300001 0.35000002 1.498 9669009
0.18900001 0.35100001 1.4990001 9603216
0.15200001 0.35600001 1.4960001 9735056
0.15900001 0.35600001 1.498 9669009
0.16500001 0.35700002 1.4990001 9669009
0.043000001 0.36200002 1.4990001 14403770
0.134 0.36100003 1.4950001 9800849
0.14 0.36200002 1.4960001 9800849
0.14600001 0.36200002 1.498 9866643
0.12200001 0.36800003 1.4950001 9866388
0.12800001 0.36800003 1.4970001 9866388
0.134 0.36800003 1.498 9866387
0.097000003 0.37400001 1.4950001 9998228
0.104 0.37400001 1.4960001 9932435
0.11000001 0.37400001 1.4970001 9998228
0.116 0.37500003 1.498 9998228
0.12200001 0.37500003 1.4990001 9735827
0.049000002 0.38000003 1.4950001 12824745
0.079000004 0.38000003 1.4950001 10195092
0.085000001 0.38000003 1.4960001 10195093
0.092000008 0.38100001 1.498 10064020
0.098000005 0.38100001 1.4990001 10064019
0.049000002 0.38700002 1.498 12693670
0.055000003 0.38600001 1.4970001 10129813
0.061000004 0.38600001 1.4950001 10260885
0.067000002 0.38600001 1.4960001 10260885
0.073000006 0.38700002 1.4970001 10195092
0.080000006 0.38700002 1.4990001 10195092
0.061000004 0.39300001 1.4990001 10261139
0.39900002 -0.40100002 1.5000001 11706775
0.34100002 -0.39300001 1.5020001 13354951
0.34800002 -0.39300001 1.5020001 13355464
0.36100003 -0.39400002 1.5040001 14341588
0.30900002 -0.38500002 1.503 13881294
0.25800002 -0.37600002 1.5000001 13022638
0.23700002 -0.26900002 1.5000001 15845544
0.23700002 -0.26300001 1.503 16042152
0.18800001 -0.22000001 1.5040001 11372148
0.17500001 -0.21300001 1.5000001 16644846
0.16900001 -0.20700002 1.501 16709099
-1.123 -0.086000003 1.5000001 14477022
-1.115 -0.086000003 1.5020001 14411229
-1.107 -0.086000003 1.503 14542816
-1.079 -0.079000004 1.503 6645093
0.48100004 -0.076000005 1.5000001 7504801
0.51500005 -0.071000002 1.5040001 7110559
0.52200001 -0.071000002 1.503 7307936
0.528 -0.071000002 1.5020001 7308451
0.53500003 -0.071000002 1.503 7374754
0.54200006 -0.071000002 1.5020001 7768741
0.54800004 -0.071000002 1.5020001 7505312
0.55500001 -0.071000002 1.5020001 7044245
0.56200004 -0.071000002 1.5020001 7044241
0.56900001 -0.071000002 1.5040001 7109775
0.066 -0.068000004 1.503 15321006
0.13800001 -0.068000004 1.501 14857879
0.15000001 -0.068000004 1.5000001 14857622
0.48800004 -0.07 1.501 7044250
0.49500003 -0.07 1.5040001 6847387
0.50100005 -0.07 1.5020001 6913180
0.509 -0.07 1.5040001 7110043
0.71700001 -0.066 1.501 8885926
0.72600001 -0.067000002 1.5040001 8885925
0.97200006 -0.07 1.503 8229015
0.98000002 -0.07 1.5020001 8294808
0.99000007 -0.07 1.5040001 8360858
0.99600005 -0.07 1.5000001 8492187
0.060000002 -0.062000003 1.5020001 16769225
0.76900005 -0.061000004 1.501 9805730
0.77700001 -0.061000004 1.5020001 9739936
0.78400004 -0.061000004 1.5000001 9805215
0.75400001 -0.060000002 1.501 9805219
0.76200002 -0.060000002 1.501 9739682
0.56100005 -0.027000001 1.5000001 10783355
-1.1140001 -0.024 1.501 6315867
0.48100004 0.053000003 1.5020001 4935780
0.50100005 0.053000003 1.5020001 5001832
-0.94100004 0.19900002 1.5020001 7234129
-0.93400002 0.19900002 1.503 7561810
-0.92300004 0.19800001 1.5000001 7824721
-0.84500003 0.22200002 1.503 4601131
-0.84600002 0.22900002 1.5040001 4535081
-0.84500003 0.23500001 1.5020001 4337704
-0.84500003 0.24200001 1.501 4205862
-0.84500003 0.24900001 1.501 4075045
0.51900005 0.24800001 1.503 7235949
0.47200003 0.252 1.5000001 8355204
0.47900003 0.252 1.501 8289667
0.48600003 0.25300002 1.5020001 8158081
0.49200001 0.25300002 1.5020001 8157570
0.49900001 0.25300002 1.501 6249822
0.51200002 0.25300002 1.5000001 5525585
0.52000004 0.25400001 1.5040001 5328719
-0.84500003 0.25500003 1.5000001 4009252
0.46600002 0.25800002 1.501 8420741
0.47300002 0.259 1.503 8355460
0.45300001 0.264 1.501 8420742
0.50700003 0.26000002 1.5040001 7499371
0.51300001 0.26000002 1.5040001 7301740
0.46000001 0.26500002 1.503 8355205
0.46700001 0.26500002 1.5040001 8355461
0.43300003 0.27000001 1.501 8420742
0.44000003 0.27000001 1.5020001 8289156
0.44700003 0.27000001 1.503 8420742
0.514 0.273 1.5040001 7104359
0.41400003 0.27500001 1.501 8420743
0.42100003 0.27600002 1.5020001 8420743
0.42800003 0.27600002 1.503 8421255
0.43400002 0.27700001 1.5040001 8289667
0.514 0.27900001 1.5040001 6973029
0.037 0.28100002 1.503 14338495
0.39500001 0.28100002 1.501 8617351
0.40100002 0.28100002 1.5020001 8486535
0.40800002 0.28200001 1.503 8355462
0.37600002 0.287 1.501 8683144
0.38200003 0.287 1.5020001 8683144
0.38900003 0.28800002 1.503 8683144
0.514 0.28500003 1.5020001 7103334
0.35600001 0.29200003 1.5000001 8749191
0.36300001 0.29300001 1.501 8683398
0.37 0.29300001 1.5040001 8683398
0.34400001 0.29800001 1.5000001 8683656
0.35100001 0.29900002 1.5020001 8683657
0.35800001 0.29900002 1.5040001 8683657
0.33200002 0.30400002 1.501 8814986
0.33800003 0.30500001 1.5020001 8880777
0.34500003 0.30500001 1.5040001 8814984
0.31300002 0.31 1.5000001 8814983
0.31900001 0.31 1.5020001 8814983
0.32600001 0.31100002 1.503 8814983
