# .PCD v0.7 - Point Cloud Data file format
VERSION 0.7
FIELDS x y z rgb
SIZE 4 4 4 4
TYPE F F F U
COUNT 1 1 1 1
WIDTH 1111
HEIGHT 1
VIEWPOINT 0 0 0 1 0 0 0
POINTS 1111
DATA ascii
0.037 -0.062000003 0.76800001 9076354
0.040000003 -0.062000003 0.76900005 13944264
0.043000001 -0.062000003 0.76900005 13483456
0.046000004 -0.062000003 0.76900005 11970215
0.049000002 -0.062000003 0.76900005 14537171
0.052000001 -0.062000003 0.76900005 12037035
0.055000003 -0.062000003 0.77000004 11774121
0.059000004 -0.062000003 0.77000004 14471634
0.062000003 -0.063000001 0.77100003 13812931
0.065000005 -0.063000001 0.77100003 12628143
0.068000004 -0.063000001 0.77100003 12692391
0.071000002 -0.063000001 0.77200001 12428447
0.074000001 -0.063000001 0.77100003 12558228
0.077000007 -0.063000001 0.77100003 12164500
0.080000006 -0.063000001 0.77100003 13349032
0.083000004 -0.063000001 0.77100003 13348001
0.086000003 -0.063000001 0.77100003 11701629
0.090000004 -0.063000001 0.77100003 11303010
0.093000002 -0.063000001 0.77100003 11237730
0.096000001 -0.063000001 0.77100003 11039581
0.099000007 -0.063000001 0.77100003 11104861
0.10200001 -0.063000001 0.77100003 11236447
0.105 -0.063000001 0.77100003 11368033
0.108 -0.063000001 0.77100003 11039837
0.11100001 -0.063000001 0.77100003 11040093
0.115 -0.063000001 0.77100003 11105114
0.11800001 -0.063000001 0.77100003 11039837
0.12100001 -0.063000001 0.77200001 11039322
0.12400001 -0.063000001 0.77200001 13872286
0.127 -0.063000001 0.77200001 12952471
0.13100001 -0.063000001 0.77300006 10973275
0.134 -0.063000001 0.77300006 9136733
0.13700001 -0.063000001 0.77300006 5390910
0.14 -0.063000001 0.77200001 3682608
-0.82000005 -0.142 1.715 16246935
-0.81200004 -0.142 1.7160001 15653758
-0.80500007 -0.142 1.72 14666084
-0.79800004 -0.142 1.723 13811543
-0.79200006 -0.142 1.728 13021772
-0.78500003 -0.142 1.7310001 7170677
-0.78000003 -0.14300001 1.738 6908525
-0.273 -0.062000003 0.77700001 6371104
-0.27200001 -0.063000001 0.78500003 6435618
-0.27100003 -0.063000001 0.79100001 6041631
-0.26900002 -0.064000003 0.79700005 6238751
-0.26500002 -0.063000001 0.79500002 11765101
-0.257 -0.062000003 0.78200006 12028007
-0.25100002 -0.062000003 0.77200001 12159586
-0.245 -0.061000004 0.76600003 11896157
-0.24100001 -0.061000004 0.76400006 11961436
-0.23800001 -0.061000004 0.76300001 11829849
-0.23400001 -0.061000004 0.76300001 12289117
-0.23100001 -0.061000004 0.76300001 11631700
-0.22800002 -0.061000004 0.76400006 11895128
-0.22500001 -0.061000004 0.76400006 11565905
-0.22100002 -0.060000002 0.76400006 11565649
-0.21800001 -0.061000004 0.76500005 11433806
-0.215 -0.060000002 0.76500005 11762258
-0.21200001 -0.060000002 0.76500005 11630926
-0.20900001 -0.060000002 0.76500005 11762514
-0.20500001 -0.060000002 0.76500005 11631187
-0.20200001 -0.060000002 0.76500005 11696980
-0.19900002 -0.060000002 0.76500005 11696723
-0.19600001 -0.060000002 0.76500005 11696467
-0.193 -0.060000002 0.76600003 11630930
-0.18900001 -0.060000002 0.76600003 11828053
-0.186 -0.060000002 0.76600003 11762003
-0.18300001 -0.060000002 0.76600003 11762003
-0.18000001 -0.060000002 0.76600003 11829079
-0.17600001 -0.060000002 0.76600003 11763031
-0.17300001 -0.060000002 0.76600003 12224097
-0.17 -0.060000002 0.76600003 12618855
-0.16700001 -0.060000002 0.76600003 12487785
-0.164 -0.060000002 0.76600003 12356199
-0.16100001 -0.060000002 0.76700002 12421992
-0.15700001 -0.060000002 0.76700002 12553578
-0.15400001 -0.060000002 0.76700002 12422503
-0.15100001 -0.060000002 0.76700002 12422505
-0.148 -0.060000002 0.76700002 12356712
-0.14500001 -0.060000002 0.76600003 12356712
-0.141 -0.060000002 0.76600003 12487785
-0.13800001 -0.060000002 0.76600003 12356199
-0.13500001 -0.060000002 0.76700002 12356198
-0.132 -0.060000002 0.76600003 12421990
-0.12900001 -0.060000002 0.76600003 12356712
-0.126 -0.060000002 0.76700002 12290919
-0.123 -0.060000002 0.76700002 12290919
-0.12 -0.060000002 0.76700002 12290919
-0.11700001 -0.060000002 0.76700002 12225127
-0.11300001 -0.060000002 0.76700002 12422505
-0.11000001 -0.059000004 0.76700002 12422505
-0.10700001 -0.059000004 0.76700002 12356458
-0.104 -0.059000004 0.76700002 12159079
-0.101 -0.059000004 0.76700002 12159850
-0.098000005 -0.059000004 0.76700002 12225643
-0.095000006 -0.059000004 0.76700002 12356458
-0.092000008 -0.059000004 0.76700002 12356458
-0.089000002 -0.059000004 0.76700002 12224873
-0.086000003 -0.059000004 0.76700002 12356459
-0.082000002 -0.059000004 0.76700002 12290666
-0.079000004 -0.059000004 0.76700002 12290666
-0.076000005 -0.059000004 0.76700002 12290666
-0.073000006 -0.059000004 0.76700002 12290665
-0.07 -0.059000004 0.76700002 12290408
-0.067000002 -0.059000004 0.76700002 12290408
-0.064000003 -0.059000004 0.76700002 12355686
-0.061000004 -0.059000004 0.76700002 12158822
-0.058000002 -0.059000004 0.76700002 12093029
-0.055000003 -0.059000004 0.76700002 12092774
-0.052000001 -0.059000004 0.76700002 12158567
-0.049000002 -0.059000004 0.76700002 12027238
-0.046000004 -0.059000004 0.76700002 12158569
-0.042000003 -0.059000004 0.76700002 12026983
-0.039000001 -0.059000004 0.76700002 12158569
-0.036000002 -0.059000004 0.76700002 12158569
-0.033 -0.059000004 0.76700002 12158826
-0.030000001 -0.059000004 0.76700002 12027240
-0.027000001 -0.059000004 0.76700002 11961190
-0.024 -0.059000004 0.76700002 12026985
-0.021000002 -0.059000004 0.76700002 11829603
-0.018000001 -0.059000004 0.76700002 11895914
-0.015000001 -0.059000004 0.76800001 12555139
-0.012 -0.059000004 0.76800001 12097422
-0.0090000005 -0.059000004 0.76700002 11441810
-0.0060000001 -0.059000004 0.76700002 11706015
-0.003 -0.059000004 0.76700002 12298923
0 -0.059000004 0.76700002 13089210
0.003 -0.059000004 0.76700002 14340049
0.0060000001 -0.059000004 0.76700002 13748168
0.0090000005 -0.059000004 0.76800001 12497588
0.012 -0.059000004 0.76800001 13549506
0.016000001 -0.059000004 0.76800001 11312288
0.019000001 -0.059000004 0.76900005 11509155
0.022000002 -0.059000004 0.76900005 13153721
0.025 -0.059000004 0.76900005 13022905
0.028000001 -0.059000004 0.76900005 13023162
0.031000001 -0.059000004 0.76900005 12694967
0.034000002 -0.059000004 0.76900005 14668500
0.037 -0.059000004 0.76900005 12891576
0.040000003 -0.059000004 0.76900005 9535876
0.043000001 -0.059000004 0.77000004 12628146
0.046000004 -0.059000004 0.76900005 14799315
0.049000002 -0.059000004 0.77000004 13023161
0.052000001 -0.059000004 0.77000004 14339792
0.056000002 -0.059000004 0.77100003 12892859
0.059000004 -0.059000004 0.77100003 14340562
0.062000003 -0.060000002 0.77200001 12956852
0.065000005 -0.060000002 0.77200001 12495530
0.068000004 -0.060000002 0.77200001 12692908
0.071000002 -0.060000002 0.77200001 13087407
0.074000001 -0.060000002 0.77200001 12692646
0.077000007 -0.060000002 0.77200001 14007480
0.080000006 -0.060000002 0.77200001 12427415
0.083000004 -0.060000002 0.77200001 10385768
0.087000005 -0.060000002 0.77200001 11567722
0.090000004 -0.060000002 0.77200001 12948604
0.093000002 -0.060000002 0.77200001 11435364
0.096000001 -0.060000002 0.77200001 11369314
0.099000007 -0.060000002 0.77200001 11369056
0.10200001 -0.060000002 0.77200001 11500642
0.105 -0.060000002 0.77200001 11566434
0.108 -0.060000002 0.77200001 11500642
0.112 -0.060000002 0.77200001 11566691
0.115 -0.060000002 0.77300006 11171937
0.11800001 -0.060000002 0.77300006 10974045
0.12100001 -0.060000002 0.77300006 10777951
0.12400001 -0.060000002 0.77300006 15913410
0.127 -0.060000002 0.77300006 10582888
0.13100001 -0.060000002 0.77300006 10711644
0.134 -0.060000002 0.77300006 8940638
0.13700001 -0.060000002 0.77300006 5521982
0.14 -0.060000002 0.77300006 3353903
-0.82100004 -0.13500001 1.7170001 16312728
-0.81300002 -0.13500001 1.7180001 15719553
-0.80600005 -0.13500001 1.7210001 14600547
-0.79900002 -0.13500001 1.7240001 14008152
-0.79200006 -0.13500001 1.728 13021510
-0.78500003 -0.13500001 1.7320001 7631998
-0.78000003 -0.13500001 1.7390001 7697789
-0.27500001 -0.059000004 0.78200006 6764580
-0.27400002 -0.060000002 0.78900003 6567200
-0.273 -0.060000002 0.79600006 6369822
-0.27100003 -0.061000004 0.80100006 6369822
-0.26700002 -0.060000002 0.79900002 11435107
-0.25800002 -0.059000004 0.78400004 12224614
-0.25100002 -0.058000002 0.77300006 12487268
-0.24600001 -0.058000002 0.76700002 12355681
-0.24200001 -0.058000002 0.76500005 12027229
-0.23800001 -0.058000002 0.76300001 11960665
-0.23500001 -0.058000002 0.76400006 12092508
-0.23100001 -0.057000004 0.76400006 11829079
-0.22800002 -0.058000002 0.76500005 11762773
-0.22500001 -0.057000004 0.76500005 11630929
-0.22200002 -0.057000004 0.76500005 11630673
-0.21900001 -0.057000004 0.76600003 11630673
-0.215 -0.057000004 0.76600003 11696466
-0.21200001 -0.057000004 0.76600003 11696722
-0.20900001 -0.057000004 0.76600003 11696723
-0.20600002 -0.057000004 0.76600003 11631186
-0.20200001 -0.057000004 0.76600003 11631186
-0.19900002 -0.057000004 0.76600003 11630672
-0.19600001 -0.057000004 0.76600003 11828051
-0.193 -0.057000004 0.76600003 11827794
-0.18900001 -0.057000004 0.76600003 11762002
-0.186 -0.057000004 0.76700002 11696209
-0.18300001 -0.057000004 0.76700002 11695953
-0.18000001 -0.057000004 0.76700002 11959121
-0.177 -0.057000004 0.76700002 11960923
-0.17300001 -0.057000004 0.76700002 12091484
-0.17 -0.057000004 0.76700002 12619623
-0.16700001 -0.057000004 0.76700002 12422505
-0.164 -0.057000004 0.76700002 12290919
-0.16100001 -0.057000004 0.76700002 12421992
-0.15700001 -0.057000004 0.76700002 12421992
-0.15400001 -0.057000004 0.76700002 12356199
-0.15100001 -0.057000004 0.76700002 12356199
-0.148 -0.057000004 0.76800001 12421992
-0.14500001 -0.057000004 0.76800001 12421992
-0.142 -0.057000004 0.76700002 12290406
-0.13800001 -0.057000004 0.76700002 12356199
-0.13500001 -0.057000004 0.76800001 12421992
-0.132 -0.057000004 0.76700002 12421992
-0.12900001 -0.057000004 0.76700002 12356455
-0.126 -0.057000004 0.76700002 12356712
-0.123 -0.057000004 0.76800001 12422505
-0.12 -0.056000002 0.76700002 12291179
-0.11700001 -0.057000004 0.76800001 12225642
-0.11400001 -0.056000002 0.76800001 12225386
-0.11000001 -0.056000002 0.76800001 12291178
-0.10700001 -0.056000002 0.76800001 12291178
-0.104 -0.056000002 0.76800001 12291178
-0.101 -0.056000002 0.76800001 12422505
-0.098000005 -0.056000002 0.76800001 12422505
-0.095000006 -0.056000002 0.76800001 12356201
-0.092000008 -0.056000002 0.76800001 12421994
-0.089000002 -0.056000002 0.76800001 12421739
-0.086000003 -0.056000002 0.76800001 12421739
-0.083000004 -0.056000002 0.76800001 12421739
-0.079000004 -0.056000002 0.76800001 12421739
-0.076000005 -0.056000002 0.76800001 12487532
-0.073000006 -0.056000002 0.76800001 12356459
-0.07 -0.056000002 0.76800001 12093287
-0.067000002 -0.056000002 0.76800001 12224873
-0.064000003 -0.056000002 0.76800001 12290666
-0.061000004 -0.056000002 0.76800001 12224615
-0.058000002 -0.056000002 0.76800001 12093029
-0.055000003 -0.056000002 0.76800001 12092774
-0.052000001 -0.056000002 0.76800001 12093287
-0.049000002 -0.056000002 0.76800001 12027238
-0.046000004 -0.056000002 0.76800001 12026981
-0.043000001 -0.056000002 0.76800001 11961188
-0.039000001 -0.056000002 0.76700002 12026983
-0.036000002 -0.056000002 0.76700002 12026983
-0.033 -0.056000002 0.76700002 11961190
-0.030000001 -0.056000002 0.76800001 11961190
-0.027000001 -0.056000002 0.76800001 12092778
-0.024 -0.056000002 0.76800001 12026985
-0.021000002 -0.056000002 0.76800001 12026727
-0.018000001 -0.056000002 0.76800001 11830126
-0.015000001 -0.056000002 0.76800001 12227208
-0.012 -0.056000002 0.76800001 13216421
-0.0090000005 -0.056000002 0.76800001 12758699
-0.0060000001 -0.056000002 0.76800001 13154231
-0.003 -0.056000002 0.76800001 14339020
0 -0.056000002 0.76800001 14668501
0.003 -0.056000002 0.76800001 14537687
0.0060000001 -0.056000002 0.76800001 14405328
0.0090000005 -0.056000002 0.76800001 14011081
0.012 -0.056000002 0.76900005 13746885
0.016000001 -0.056000002 0.76900005 11378080
0.019000001 -0.056000002 0.76900005 10456724
0.022000002 -0.056000002 0.76900005 12364975
0.025 -0.056000002 0.76900005 12693940
0.028000001 -0.056000002 0.77000004 11378337
0.031000001 -0.056000002 0.77000004 13746885
0.034000002 -0.056000002 0.77000004 13221311
0.037 -0.056000002 0.77000004 14734034
0.040000003 -0.056000002 0.77000004 10062220
0.043000001 -0.056000002 0.77000004 8350573
0.046000004 -0.056000002 0.77000004 9996426
0.049000002 -0.056000002 0.77100003 14734548
0.052000001 -0.056000002 0.77100003 14273999
0.056000002 -0.056000002 0.77100003 14669268
0.059000004 -0.056000002 0.77200001 14669270
0.062000003 -0.056000002 0.77200001 13945549
0.065000005 -0.057000004 0.77300006 13879497
0.068000004 -0.057000004 0.77300006 13615039
0.071000002 -0.057000004 0.77300006 12890287
0.074000001 -0.057000004 0.77300006 12560807
0.077000007 -0.057000004 0.77300006 11834765
0.080000006 -0.057000004 0.77300006 10844776
0.084000006 -0.057000004 0.77300006 11106658
0.087000005 -0.057000004 0.77300006 11040350
0.090000004 -0.057000004 0.77300006 11040865
0.093000002 -0.057000004 0.77300006 11106143
0.096000001 -0.057000004 0.77300006 11171424
0.099000007 -0.057000004 0.77300006 11171421
0.10200001 -0.057000004 0.77300006 10842968
0.105 -0.057000004 0.77300006 10974554
0.109 -0.057000004 0.77300006 11105881
0.112 -0.057000004 0.77300006 11369054
0.115 -0.057000004 0.77300006 11370085
0.11800001 -0.057000004 0.77300006 11500639
0.12100001 -0.057000004 0.77300006 13673100
0.12400001 -0.057000004 0.77300006 11108204
0.12800001 -0.057000004 0.77400005 10252382
0.13100001 -0.057000004 0.77400005 10187876
0.134 -0.057000004 0.77400005 10915202
0.13700001 -0.057000004 0.77400005 5390911
0.14 -0.057000004 0.77400005 3287850
-0.82100004 -0.127 1.7180001 16378266
-0.81300002 -0.127 1.7190001 15785346
-0.80500007 -0.127 1.7210001 14731879
-0.79800004 -0.127 1.7240001 14270811
-0.79200006 -0.127 1.728 13087561
-0.78500003 -0.12800001 1.7310001 8093065
-0.77900004 -0.12800001 1.7370001 7960963
-0.27600002 -0.056000002 0.77700001 7093799
-0.27600002 -0.056000002 0.78600001 6962213
-0.27500001 -0.057000004 0.79300004 6764580
-0.27400002 -0.057000004 0.79900002 6567458
-0.27200001 -0.058000002 0.80400002 6698787
-0.26700002 -0.057000004 0.80100006 10909533
-0.25800002 -0.056000002 0.78500003 11961443
-0.25100002 -0.055000003 0.77300006 12158816
-0.24600001 -0.055000003 0.76700002 12355681
-0.24200001 -0.055000003 0.76500005 12026203
-0.23800001 -0.054000001 0.76400006 11960925
-0.23500001 -0.054000001 0.76400006 12223839
-0.23200001 -0.054000001 0.76500005 11696725
-0.22800002 -0.054000001 0.76500005 11631187
-0.22500001 -0.054000001 0.76500005 11630415
-0.22200002 -0.054000001 0.76600003 11762002
-0.21900001 -0.054000001 0.76600003 11762001
-0.21600001 -0.054000001 0.76700002 12025173
-0.21200001 -0.054000001 0.76700002 11959634
-0.20900001 -0.054000001 0.76700002 11828305
-0.20600002 -0.054000001 0.76700002 11828049
-0.20300001 -0.054000001 0.76700002 11893585
-0.19900002 -0.054000001 0.76700002 11959121
-0.19600001 -0.054000001 0.76700002 11893584
-0.193 -0.054000001 0.76700002 11762255
-0.19000001 -0.054000001 0.76700002 11762001
-0.18700001 -0.054000001 0.76800001 11695951
-0.18300001 -0.054000001 0.76800001 11761744
-0.18000001 -0.054000001 0.76800001 11827278
-0.177 -0.054000001 0.76800001 11961436
-0.17400001 -0.054000001 0.76800001 11958869
-0.17 -0.054000001 0.76700002 12421987
-0.16700001 -0.054000001 0.76700002 12553578
-0.164 -0.054000001 0.76700002 12487785
-0.16100001 -0.054000001 0.76800001 12487785
-0.15800001 -0.054000001 0.76800001 12487785
-0.15400001 -0.054000001 0.76800001 12421992
-0.15100001 -0.054000001 0.76800001 12487785
-0.148 -0.054000001 0.76800001 12487785
-0.14500001 -0.054000001 0.76900005 12487785
-0.142 -0.054000001 0.76800001 12487785
-0.13900001 -0.054000001 0.76800001 12356199
-0.13600001 -0.054000001 0.76900005 12356199
-0.132 -0.054000001 0.76800001 12356199
-0.12900001 -0.054000001 0.76800001 12356712
-0.126 -0.053000003 0.76800001 12356712
-0.123 -0.053000003 0.76800001 12356712
-0.12 -0.053000003 0.76800001 12422505
-0.11700001 -0.053000003 0.76800001 12422505
-0.11400001 -0.053000003 0.76900005 12422251
-0.11100001 -0.053000003 0.76900005 12422251
-0.10700001 -0.053000003 0.76900005 12421994
-0.104 -0.053000003 0.76900005 12487787
-0.101 -0.053000003 0.76900005 12553578
-0.098000005 -0.053000003 0.76900005 12487785
-0.095000006 -0.053000003 0.76900005 12356201
-0.092000008 -0.053000003 0.76900005 12422251
-0.089000002 -0.053000003 0.76900005 12290153
-0.086000003 -0.053000003 0.76900005 12355946
-0.083000004 -0.053000003 0.76900005 12421483
-0.080000006 -0.053000003 0.76900005 12290153
-0.076000005 -0.053000003 0.76900005 12355946
-0.073000006 -0.053000003 0.76900005 12355946
-0.07 -0.053000003 0.76900005 12290153
-0.067000002 -0.053000003 0.76900005 12224360
-0.064000003 -0.053000003 0.76800001 12290153
-0.061000004 -0.053000003 0.76900005 12224872
-0.058000002 -0.053000003 0.76900005 12159079
-0.055000003 -0.053000003 0.76900005 12224360
-0.052000001 -0.053000003 0.76900005 12158567
-0.049000002 -0.053000003 0.76900005 12092774
-0.046000004 -0.053000003 0.76900005 12092774
-0.043000001 -0.053000003 0.76900005 12092774
-0.039000001 -0.053000003 0.76800001 12158569
-0.036000002 -0.053000003 0.76800001 12026983
-0.033 -0.053000003 0.76800001 11961190
-0.030000001 -0.053000003 0.76900005 11961190
-0.027000001 -0.053000003 0.76800001 12026985
-0.024 -0.053000003 0.76900005 12092778
-0.021000002 -0.053000003 0.76900005 12092006
-0.018000001 -0.053000003 0.76900005 11961973
-0.015000001 -0.053000003 0.76900005 12491667
-0.012 -0.053000003 0.76900005 12955051
-0.0090000005 -0.053000003 0.76900005 13549502
-0.0060000001 -0.053000003 0.76900005 14471378
-0.003 -0.053000003 0.76900005 14602964
0 -0.053000003 0.76900005 14602964
0.003 -0.053000003 0.76900005 14602964
0.0060000001 -0.053000003 0.76900005 14405585
0.0090000005 -0.053000003 0.76900005 13945034
0.012 -0.053000003 0.77000004 14141643
0.016000001 -0.053000003 0.77000004 12957369
0.019000001 -0.053000003 0.77000004 12101549
0.022000002 -0.053000003 0.77000004 13614273
0.025 -0.053000003 0.77000004 12496561
0.028000001 -0.053000003 0.77100003 12036008
0.031000001 -0.053000003 0.77100003 12233900
0.034000002 -0.053000003 0.77100003 12958137
0.037 -0.053000003 0.77100003 12497331
0.040000003 -0.053000003 0.77100003 12430768
0.043000001 -0.053000003 0.77100003 13417663
0.046000004 -0.053000003 0.77100003 8943482
0.049000002 -0.053000003 0.77200001 14010827
0.052000001 -0.053000003 0.77200001 11510693
0.056000002 -0.053000003 0.77200001 12432307
0.059000004 -0.053000003 0.77300006 14011853
0.062000003 -0.053000003 0.77300006 14142926
0.065000005 -0.054000001 0.77400005 13418689
0.068000004 -0.054000001 0.77400005 12760244
0.071000002 -0.054000001 0.77400005 12759216
0.074000001 -0.054000001 0.77400005 12100512
0.077000007 -0.054000001 0.77400005 12427416
0.081 -0.054000001 0.77400005 11964804
0.084000006 -0.054000001 0.77400005 10975331
0.087000005 -0.054000001 0.77400005 11106143
0.090000004 -0.054000001 0.77400005 11237470
0.093000002 -0.054000001 0.77400005 11171676
0.096000001 -0.054000001 0.77400005 11040092
0.099000007 -0.054000001 0.77400005 11105885
0.10200001 -0.054000001 0.77400005 10974555
0.105 -0.054000001 0.77400005 10908762
0.109 -0.054000001 0.77400005 11105883
0.112 -0.054000001 0.77300006 11105883
0.115 -0.054000001 0.77400005 11039833
0.11800001 -0.054000001 0.77400005 11039833
0.12100001 -0.054000001 0.77400005 11895658
0.12400001 -0.054000001 0.77400005 10777690
0.12800001 -0.054000001 0.77400005 10646363
0.13100001 -0.054000001 0.77400005 15385522
0.134 -0.054000001 0.77400005 8545882
0.13700001 -0.054000001 0.77400005 5720133
0.14 -0.054000001 0.77400005 3287851
-0.82100004 -0.12 1.7190001 16378010
-0.81300002 -0.12 1.72 15587713
-0.80600005 -0.12 1.7220001 14600810
-0.79900002 -0.12 1.725 13614675
-0.79200006 -0.12 1.728 13020749
-0.78400004 -0.12 1.7300001 7895168
-0.77800006 -0.12 1.7340001 7107703
-0.76000005 -0.119 1.7130001 3882566
-0.69500005 -0.112 1.6190001 3289400
-0.68400002 -0.112 1.6290001 4408393
-0.27800003 -0.053000003 0.78200006 7421481
-0.27700001 -0.053000003 0.78900003 7093798
-0.27600002 -0.054000001 0.79500002 6830632
-0.27400002 -0.054000001 0.80100006 7222309
-0.27200001 -0.054000001 0.80600005 6699818
-0.26700002 -0.054000001 0.80200005 10450269
-0.25800002 -0.053000003 0.78300005 11699293
-0.25 -0.052000001 0.77100003 11961440
-0.24600001 -0.052000001 0.76700002 12289890
-0.24200001 -0.051000003 0.76600003 12026205
-0.23800001 -0.051000003 0.76500005 12223581
-0.23500001 -0.051000003 0.76500005 11762769
-0.23200001 -0.051000003 0.76500005 11959123
-0.22900002 -0.051000003 0.76600003 11827537
-0.22500001 -0.051000003 0.76600003 11761744
-0.22200002 -0.051000003 0.76700002 11695950
-0.21900001 -0.051000003 0.76700002 11893328
-0.21600001 -0.051000003 0.76700002 12024914
-0.21300001 -0.051000003 0.76800001 11827535
-0.20900001 -0.051000003 0.76800001 12024912
-0.20600002 -0.051000003 0.76800001 11959119
-0.20300001 -0.051000003 0.76800001 11959119
-0.19900002 -0.051000003 0.76800001 11959119
-0.19600001 -0.051000003 0.76800001 11761997
-0.193 -0.051000003 0.76800001 11696206
-0.19000001 -0.051000003 0.76800001 11761998
-0.18700001 -0.051000003 0.76900005 11892560
-0.18300001 -0.051000003 0.76900005 11893330
-0.18000001 -0.051000003 0.76900005 11893587
-0.177 -0.051000003 0.76900005 12223069
-0.17400001 -0.051000003 0.76900005 12026203
-0.171 -0.051000003 0.76900005 12356198
-0.16700001 -0.051000003 0.76800001 12356199
-0.164 -0.051000003 0.76900005 12487785
-0.16100001 -0.051000003 0.76900005 12553578
-0.15800001 -0.051000003 0.76900005 12553578
-0.155 -0.051000003 0.76900005 12553578
-0.15100001 -0.051000003 0.76900005 12487785
-0.148 -0.051000003 0.76900005 12356199
-0.14500001 -0.051000003 0.76900005 12421992
-0.142 -0.051000003 0.76900005 12421992
-0.13900001 -0.051000003 0.76900005 12553578
-0.13600001 -0.051000003 0.76900005 12487785
-0.132 -0.051000003 0.76900005 12421992
-0.12900001 -0.050000001 0.76900005 12356197
-0.126 -0.050000001 0.76900005 12487784
-0.123 -0.050000001 0.76900005 12487785
-0.12 -0.050000001 0.76900005 12487786
-0.11700001 -0.050000001 0.76900005 12421994
-0.11400001 -0.050000001 0.76900005 12487787
-0.11100001 -0.050000001 0.77000004 12553580
-0.108 -0.050000001 0.77000004 12487786
-0.104 -0.050000001 0.77000004 12487786
-0.101 -0.050000001 0.77000004 12422247
-0.098000005 -0.050000001 0.76900005 12224870
-0.095000006 -0.050000001 0.76900005 12356200
-0.092000008 -0.050000001 0.77000004 12421994
-0.089000002 -0.050000001 0.76900005 12487532
-0.086000003 -0.050000001 0.76900005 12421739
-0.083000004 -0.050000001 0.77000004 12421739
-0.080000006 -0.050000001 0.77000004 12421739
-0.076000005 -0.050000001 0.76900005 12421739
-0.073000006 -0.050000001 0.76900005 12487275
-0.07 -0.050000001 0.76900005 12355946
-0.067000002 -0.050000001 0.76900005 12158567
-0.064000003 -0.050000001 0.76900005 12158567
-0.061000004 -0.050000001 0.76900005 12224615
-0.058000002 -0.050000001 0.77000004 12290408
-0.055000003 -0.050000001 0.77000004 12290153
-0.052000001 -0.050000001 0.77000004 12093287
-0.049000002 -0.050000001 0.77000004 12158567
-0.046000004 -0.050000001 0.76900005 12158567
-0.043000001 -0.050000001 0.76900005 12158567
-0.040000003 -0.050000001 0.76900005 12026983
-0.036000002 -0.050000001 0.76900005 12092776
-0.033 -0.050000001 0.76900005 11961190
-0.030000001 -0.050000001 0.77000004 12026726
-0.027000001 -0.050000001 0.76900005 11895399
-0.024 -0.050000001 0.76900005 11961192
-0.021000002 -0.050000001 0.77000004 11895658
-0.018000001 -0.050000001 0.77000004 11700345
-0.015000001 -0.050000001 0.77000004 12360597
-0.012 -0.050000001 0.77000004 12758190
-0.0090000005 -0.050000001 0.77000004 13418174
-0.0060000001 -0.050000001 0.77000004 14405585
-0.003 -0.050000001 0.76900005 14603477
0 -0.050000001 0.77000004 14537686
0.003 -0.050000001 0.76900005 14537944
0.0060000001 -0.050000001 0.77000004 14208719
0.0090000005 -0.050000001 0.77000004 12826555
0.012 -0.050000001 0.77000004 13417663
0.016000001 -0.050000001 0.77100003 11443362
0.019000001 -0.050000001 0.77100003 10982810
0.022000002 -0.050000001 0.77100003 12166825
0.025 -0.050000001 0.77100003 11969960
0.028000001 -0.050000001 0.77100003 10259597
0.031000001 -0.050000001 0.77200001 12431023
0.034000002 -0.050000001 0.77200001 12037036
0.037 -0.050000001 0.77200001 14734550
0.040000003 -0.050000001 0.77200001 12299439
0.043000001 -0.050000001 0.77200001 14141386
0.046000004 -0.050000001 0.77200001 14405327
0.049000002 -0.050000001 0.77300006 14537169
0.053000003 -0.050000001 0.77300006 14669268
0.056000002 -0.050000001 0.77300006 14537682
0.059000004 -0.050000001 0.77400005 14538195
0.062000003 -0.050000001 0.77400005 13945804
0.065000005 -0.051000003 0.77500004 12892602
0.068000004 -0.051000003 0.77500004 12694450
0.071000002 -0.051000003 0.77500004 12627629
0.074000001 -0.051000003 0.77500004 12561063
0.078000002 -0.051000003 0.77500004 12757413
0.081 -0.051000003 0.77500004 12492693
0.084000006 -0.051000003 0.77500004 12228491
0.087000005 -0.051000003 0.77500004 11372150
0.090000004 -0.051000003 0.77500004 11304812
0.093000002 -0.051000003 0.77500004 11633260
0.096000001 -0.051000003 0.77500004 11237470
0.099000007 -0.051000003 0.77400005 11499871
0.10200001 -0.051000003 0.77400005 11171676
0.105 -0.051000003 0.77400005 11105883
0.109 -0.051000003 0.77500004 11171676
0.112 -0.051000003 0.77400005 11105883
0.115 -0.051000003 0.77500004 10908504
0.11800001 -0.051000003 0.77500004 10842713
0.12100001 -0.051000003 0.77500004 10974556
0.125 -0.051000003 0.77500004 11040608
0.12800001 -0.051000003 0.77500004 13212034
0.13100001 -0.051000003 0.77500004 10845545
0.134 -0.051000003 0.77500004 8347990
0.13700001 -0.051000003 0.77500004 5851202
0.14 -0.051000003 0.77500004 4142131
-0.82000005 -0.11300001 1.7180001 16180375
-0.81300002 -0.11300001 1.7190001 15324800
-0.80600005 -0.11300001 1.7220001 14337640
-0.79900002 -0.11300001 1.725 14073435
-0.79200006 -0.11300001 1.728 13284449
-0.78300005 -0.11300001 1.728 10593439
-0.77400005 -0.112 1.7260001 10791334
-0.75400001 -0.11000001 1.6990001 12961480
-0.71900004 -0.10600001 1.6390001 12632515
-0.67800003 -0.105 1.6330001 8027785
-0.28 -0.050000001 0.78600001 7356971
-0.27800003 -0.050000001 0.79200006 7224358
-0.27600002 -0.051000003 0.79700005 3153688
-0.27500001 -0.051000003 0.80400002 2040611
-0.273 -0.051000003 0.80800003 4275780
-0.26700002 -0.051000003 0.80200005 8742232
-0.25600001 -0.049000002 0.77900004 11567967
-0.25 -0.049000002 0.76900005 11699298
-0.245 -0.048 0.76600003 12092767
-0.24200001 -0.048 0.76600003 12158052
-0.23800001 -0.048 0.76500005 11959896
-0.23500001 -0.048 0.76600003 11630414
-0.23200001 -0.048 0.76600003 11695949
-0.22900002 -0.048 0.76700002 11893328
-0.22500001 -0.048 0.76700002 11630156
-0.22200002 -0.048 0.76700002 11827535
-0.21900001 -0.048 0.76800001 11959120
-0.21600001 -0.048 0.76800001 11959121
-0.21300001 -0.048 0.76800001 11827534
-0.20900001 -0.048 0.76800001 11959120
-0.20600002 -0.048 0.76800001 11893326
-0.20300001 -0.048 0.76800001 11893326
-0.19900002 -0.048 0.76800001 11827533
-0.19600001 -0.048 0.76900005 11761741
-0.193 -0.048 0.76900005 11761742
-0.19000001 -0.048 0.76900005 11827535
-0.18700001 -0.048 0.77000004 11827537
-0.18400002 -0.048 0.77000004 11959123
-0.18000001 -0.048 0.77000004 11958864
-0.177 -0.048 0.77000004 12288860
-0.17400001 -0.048 0.76900005 15053712
-0.171 -0.048 0.76900005 12487785
-0.16700001 -0.048 0.76900005 12553578
-0.164 -0.048 0.77000004 12487785
-0.16100001 -0.048 0.76900005 12553578
-0.15800001 -0.048 0.77000004 12487785
-0.155 -0.048 0.77000004 12553578
-0.15200001 -0.048 0.77000004 12421992
-0.148 -0.048 0.77000004 12421992
-0.14500001 -0.048 0.77000004 12487785
-0.142 -0.048 0.77000004 12421992
-0.13900001 -0.048 0.77000004 12487785
-0.13600001 -0.048 0.77000004 12421992
-0.133 -0.047000002 0.77000004 12356199
-0.12900001 -0.047000002 0.77000004 12421991
-0.126 -0.047000002 0.77000004 12421990
-0.123 -0.047000002 0.77000004 12356198
-0.12 -0.047000002 0.77000004 12487785
-0.11700001 -0.047000002 0.77000004 12356200
-0.11400001 -0.047000002 0.77000004 12421992
-0.11100001 -0.047000002 0.77000004 12356199
-0.108 -0.047000002 0.77000004 12421994
-0.104 -0.047000002 0.77000004 12421994
-0.101 -0.047000002 0.77000004 12421994
-0.098000005 -0.047000002 0.77000004 12421994
-0.095000006 -0.047000002 0.77000004 12421994
-0.092000008 -0.047000002 0.77000004 12487787
-0.089000002 -0.047000002 0.77000004 12487532
-0.086000003 -0.047000002 0.77000004 12355946
-0.083000004 -0.047000002 0.77100003 12421739
-0.080000006 -0.047000002 0.77100003 12355946
-0.076000005 -0.047000002 0.77000004 12355946
-0.073000006 -0.047000002 0.77000004 12224873
-0.07 -0.047000002 0.77000004 12355946
-0.067000002 -0.047000002 0.77000004 12290153
-0.064000003 -0.047000002 0.77000004 12224360
-0.061000004 -0.047000002 0.77000004 12224615
-0.058000002 -0.047000002 0.77000004 12356201
-0.055000003 -0.047000002 0.77100003 12224360
-0.052000001 -0.047000002 0.77100003 12355946
-0.049000002 -0.047000002 0.77000004 12158567
-0.046000004 -0.047000002 0.77000004 12158567
-0.043000001 -0.047000002 0.77000004 12092776
-0.040000003 -0.047000002 0.77000004 12092776
-0.036000002 -0.047000002 0.77000004 12092776
-0.033 -0.047000002 0.77000004 12092776
-0.030000001 -0.047000002 0.77000004 11961449
-0.027000001 -0.047000002 0.77000004 11895399
-0.024 -0.047000002 0.77000004 11895399
-0.021000002 -0.047000002 0.77000004 12026732
-0.018000001 -0.047000002 0.77000004 11831930
-0.015000001 -0.047000002 0.77000004 12756383
-0.012 -0.047000002 0.77000004 13284788
-0.0090000005 -0.047000002 0.77100003 13417405
-0.0060000001 -0.047000002 0.77000004 13879241
-0.003 -0.047000002 0.77000004 14602964
0 -0.047000002 0.77000004 14537684
0.003 -0.047000002 0.77000004 14537684
0.0060000001 -0.047000002 0.77000004 14406098
0.0090000005 -0.047000002 0.77100003 11642279
0.013 -0.047000002 0.77100003 13944007
0.016000001 -0.047000002 0.77100003 11838118
0.019000001 -0.047000002 0.77100003 12429999
0.022000002 -0.047000002 0.77200001 10587794
0.025 -0.047000002 0.77200001 13878214
0.028000001 -0.047000002 0.77200001 12431279
0.031000001 -0.047000002 0.77200001 12036521
0.034000002 -0.047000002 0.77300006 11379107
0.037 -0.047000002 0.77300006 14602964
0.040000003 -0.047000002 0.77300006 13945034
0.043000001 -0.047000002 0.77300006 14865366
0.046000004 -0.047000002 0.77300006 10326419
0.050000001 -0.047000002 0.77400005 14339792
0.053000003 -0.047000002 0.77400005 14668757
0.056000002 -0.047000002 0.77400005 14602964
0.059000004 -0.047000002 0.77400005 14537684
0.062000003 -0.047000002 0.77500004 14537169
0.065000005 -0.047000002 0.77500004 14602962
0.068000004 -0.047000002 0.77500004 14537169
0.071000002 -0.048 0.77600002 13418174
0.074000001 -0.048 0.77600002 13153716
0.078000002 -0.048 0.77600002 13087406
0.081 -0.048 0.77600002 12757154
0.084000006 -0.048 0.77600002 12690329
0.087000005 -0.048 0.77600002 12558228
0.090000004 -0.048 0.77600002 13543833
0.093000002 -0.048 0.77600002 12752772
0.096000001 -0.048 0.77600002 11303521
0.099000007 -0.048 0.77500004 11434077
0.10200001 -0.048 0.77500004 11170904
0.10600001 -0.048 0.77500004 11236698
0.109 -0.048 0.77500004 11171160
0.112 -0.048 0.77500004 11302491
0.115 -0.048 0.77600002 11171161
0.11800001 -0.048 0.77600002 11040347
0.12100001 -0.048 0.77600002 11632741
0.125 -0.048 0.77600002 11896430
0.12800001 -0.048 0.77600002 11041634
0.13100001 -0.048 0.77600002 11830897
0.134 -0.048 0.77500004 8610133
0.13700001 -0.048 0.77500004 5326400
0.141 -0.048 0.77600002 3813682
-0.82000005 -0.105 1.7170001 15719830
-0.81200004 -0.105 1.7180001 15127686
-0.80500007 -0.105 1.7210001 14206575
-0.79700005 -0.105 1.723 13876578
-0.79000002 -0.105 1.7260001 13154159
-0.78100002 -0.105 1.7240001 16776943
-0.77000004 -0.105 1.7180001 16777209
-0.73800004 -0.101 1.664 16645881
-0.71800005 -0.099000007 1.636 12632254
-0.70700002 -0.099000007 1.628 12566723
-0.69800001 -0.098000005 1.6250001 12829636
-0.69000006 -0.098000005 1.626 11975104
-0.68400002 -0.098000005 1.6290001 10002861
-0.67800003 -0.099000007 1.6330001 9870249
-0.67300004 -0.099000007 1.6390001 9870505
-0.67000002 -0.099000007 1.6520001 9805225
-0.75300002 -0.11400001 1.9000001 9474719
-0.75000006 -0.115 1.914 7171443
-0.73600006 -0.11400001 1.9000001 7959932
-0.28300002 -0.047000002 0.78600001 7821395
-0.28100002 -0.047000002 0.79100001 6578537
-0.27900001 -0.047000002 0.79600006 4079946
-0.27800003 -0.048 0.80100006 3159097
-0.27600002 -0.048 0.80800003 4013895
-0.27400002 -0.048 0.81100005 7369593
-0.26700002 -0.047000002 0.80100006 9865605
-0.25500003 -0.046000004 0.77400005 11504749
-0.24900001 -0.045000002 0.76800001 12157796
-0.245 -0.045000002 0.76600003 12027233
-0.24200001 -0.045000002 0.76600003 12026723
-0.23800001 -0.045000002 0.76500005 11959897
-0.23500001 -0.045000002 0.76600003 11433804
-0.23200001 -0.045000002 0.76700002 11695947
-0.22900002 -0.045000002 0.76700002 11695948
-0.22600001 -0.045000002 0.76800001 11564619
-0.22200002 -0.045000002 0.76800001 11630668
-0.21900001 -0.045000002 0.76800001 11827789
-0.21600001 -0.045000002 0.76800001 12090962
-0.21300001 -0.045000002 0.76900005 11893583
-0.20900001 -0.045000002 0.76900005 11696204
-0.20600002 -0.045000002 0.76900005 11761998
-0.20300001 -0.045000002 0.76900005 11761998
-0.2 -0.045000002 0.76900005 11761998
-0.19600001 -0.045000002 0.76900005 11696205
-0.193 -0.045000002 0.77000004 11761999
-0.19000001 -0.045000002 0.77000004 11695949
-0.18700001 -0.045000002 0.77000004 11761744
-0.18400002 -0.045000002 0.77100003 11958610
-0.18100001 -0.045000002 0.77100003 11762001
-0.177 -0.045000002 0.77100003 11960153
-0.17400001 -0.045000002 0.77000004 11894617
-0.171 -0.045000002 0.77000004 12290405
-0.16800001 -0.045000002 0.77000004 12553578
-0.164 -0.045000002 0.77000004 12487785
-0.16100001 -0.045000002 0.77000004 12487785
-0.15800001 -0.045000002 0.77000004 12421992
-0.155 -0.045000002 0.77000004 12421992
-0.15200001 -0.045000002 0.77000004 12356199
-0.149 -0.045000002 0.77100003 12421992
-0.14500001 -0.045000002 0.77100003 12487785
-0.142 -0.045000002 0.77100003 12421992
-0.13900001 -0.044000003 0.77100003 12356199
-0.13600001 -0.044000003 0.77100003 12356199
-0.133 -0.044000003 0.77100003 12356199
-0.13000001 -0.044000003 0.77100003 12421990
-0.126 -0.044000003 0.77100003 12421990
-0.123 -0.044000003 0.77100003 12421991
-0.12 -0.044000003 0.77100003 12487785
-0.11700001 -0.044000003 0.77100003 12487785
-0.11400001 -0.044000003 0.77100003 12421994
-0.11100001 -0.044000003 0.77100003 12356201
-0.108 -0.044000003 0.77100003 12356199
-0.105 -0.044000003 0.77100003 12290406
-0.101 -0.044000003 0.77100003 12290408
-0.098000005 -0.044000003 0.77100003 12290408
-0.095000006 -0.044000003 0.77100003 12224360
-0.092000008 -0.044000003 0.77100003 12355946
-0.089000002 -0.044000003 0.77100003 12355946
-0.086000003 -0.044000003 0.77100003 12421739
-0.083000004 -0.044000003 0.77100003 12355946
-0.080000006 -0.044000003 0.77100003 12355946
-0.077000007 -0.044000003 0.77100003 12290153
-0.073000006 -0.044000003 0.77100003 12290666
-0.07 -0.044000003 0.77100003 12356459
-0.067000002 -0.044000003 0.77100003 12224873
-0.064000003 -0.044000003 0.77100003 12159080
-0.061000004 -0.044000003 0.77100003 12356201
-0.058000002 -0.044000003 0.77100003 12290153
-0.055000003 -0.044000003 0.77100003 12355946
-0.052000001 -0.044000003 0.77100003 12224362
-0.049000002 -0.044000003 0.77100003 12092774
-0.046000004 -0.044000003 0.77100003 12092775
-0.043000001 -0.044000003 0.77100003 12421741
-0.040000003 -0.044000003 0.77100003 11961190
-0.037 -0.044000003 0.77100003 11961192
-0.033 -0.044000003 0.77100003 12092778
-0.030000001 -0.044000003 0.77100003 12093035
-0.027000001 -0.044000003 0.77100003 12027242
-0.024 -0.044000003 0.77100003 11960938
-0.021000002 -0.044000003 0.77100003 12025963
-0.018000001 -0.044000003 0.77100003 11831934
-0.015000001 -0.044000003 0.77100003 12690591
-0.012 -0.044000003 0.77100003 13021876
-0.0090000005 -0.044000003 0.77100003 13549247
-0.0060000001 -0.044000003 0.77100003 13616069
-0.003 -0.044000003 0.77100003 14603477
0 -0.044000003 0.77100003 14603223
0.003 -0.044000003 0.77100003 14669016
0.0060000001 -0.044000003 0.77100003 14406096
0.0090000005 -0.044000003 0.77100003 14208206
0.013 -0.044000003 0.77200001 11904424
0.016000001 -0.044000003 0.77200001 12496049
0.019000001 -0.044000003 0.77200001 11640738
0.022000002 -0.044000003 0.77200001 10391442
0.025 -0.044000003 0.77200001 11509923
0.028000001 -0.044000003 0.77300006 10326417
0.031000001 -0.044000003 0.77300006 12629172
0.034000002 -0.044000003 0.77300006 11905707
0.037 -0.044000003 0.77400005 14866136
0.040000003 -0.044000003 0.77400005 8878973
0.043000001 -0.044000003 0.77400005 9207938
0.046000004 -0.044000003 0.77500004 11708072
0.050000001 -0.044000003 0.77500004 14208206
0.053000003 -0.044000003 0.77500004 14734550
0.056000002 -0.044000003 0.77500004 14537171
0.059000004 -0.044000003 0.77500004 14603477
0.062000003 -0.044000003 0.77500004 14669270
0.065000005 -0.044000003 0.77600002 14602964
0.068000004 -0.044000003 0.77600002 14471376
0.071000002 -0.044000003 0.77700001 13287102
0.074000001 -0.044000003 0.77600002 13022903
0.078000002 -0.044000003 0.77600002 12758444
0.081 -0.045000002 0.77700001 13020843
0.084000006 -0.045000002 0.77700001 12888485
0.087000005 -0.044000003 0.77600002 12230295
0.090000004 -0.044000003 0.77600002 11571073
0.093000002 -0.045000002 0.77600002 11240046
0.096000001 -0.045000002 0.77600002 11237473
0.099000007 -0.045000002 0.77600002 11302489
0.10300001 -0.045000002 0.77600002 11105370
0.10600001 -0.045000002 0.77600002 11236956
0.109 -0.045000002 0.77600002 12158314
0.112 -0.045000002 0.77600002 12026729
0.115 -0.045000002 0.77600002 11566180
0.11800001 -0.045000002 0.77600002 11237215
0.12100001 -0.045000002 0.77600002 11303523
0.125 -0.045000002 0.77600002 10909279
0.12800001 -0.045000002 0.77600002 15317668
0.13100001 -0.045000002 0.77600002 10778207
0.134 -0.045000002 0.77700001 8807512
0.13700001 -0.045000002 0.77600002 4996921
0.14 -0.045000002 0.77600002 3615790
-0.82300001 -0.087000005 1.501 7040878
-0.80500007 -0.086000003 1.483 4803400
-0.79900002 -0.086000003 1.485 3092530
-0.78700006 -0.086000003 1.478 3027509
-0.77700001 -0.085000001 1.4720001 2895154
-0.75300002 -0.084000006 1.4560001 2961463
-0.81700003 -0.098000005 1.7110001 14142628
-0.80900002 -0.098000005 1.7130001 14077103
-0.80300003 -0.098000005 1.7170001 12959643
-0.79500002 -0.098000005 1.7180001 13220238
-0.78800005 -0.098000005 1.72 13023366
-0.77800006 -0.097000003 1.7180001 15460827
-0.76400006 -0.097000003 1.705 16775414
-0.73400003 -0.094000004 1.6550001 16711159
-0.71500003 -0.092000008 1.6300001 12895426
-0.70600003 -0.092000008 1.626 12566466
-0.69700003 -0.091000006 1.6240001 12763588
-0.69000006 -0.091000006 1.626 12041155
-0.68300003 -0.091000006 1.628 9344421
-0.67800003 -0.092000008 1.6330001 9409957
-0.67300004 -0.092000008 1.641 9541543
-0.67000002 -0.092000008 1.6520001 9738667
-0.68400002 -0.095000006 1.7060001 9870254
-0.68500006 -0.096000001 1.7270001 9804209
-0.287 -0.044000003 0.79800004 9541031
-0.28400001 -0.044000003 0.80000001 10133679
-0.28300002 -0.045000002 0.80700004 11317182
-0.25500003 -0.043000001 0.77400005 12161136
-0.24900001 -0.042000003 0.76800001 11567193
-0.245 -0.042000003 0.76600003 11829337
-0.24200001 -0.042000003 0.76600003 12158049
-0.23800001 -0.042000003 0.76600003 11696725
-0.23500001 -0.042000003 0.76700002 11565645
-0.23200001 -0.042000003 0.76700002 11762255
-0.22900002 -0.042000003 0.76800001 11761998
-0.22600001 -0.042000003 0.76800001 11695947
-0.223 -0.042000003 0.76900005 11761740
-0.21900001 -0.042000003 0.76900005 11893326
-0.21600001 -0.042000003 0.76900005 12156498
-0.21300001 -0.042000003 0.77000004 11893840
-0.21000001 -0.042000003 0.77000004 11761999
-0.20600002 -0.042000003 0.77000004 11761742
-0.20300001 -0.042000003 0.77000004 11761743
-0.2 -0.042000003 0.77000004 11893330
-0.19700001 -0.042000003 0.77000004 11761744
-0.193 -0.042000003 0.77000004 11827535
-0.19000001 -0.042000003 0.77100003 11761742
-0.18700001 -0.042000003 0.77100003 11695949
-0.18400002 -0.042000003 0.77200001 11761742
-0.18100001 -0.042000003 0.77100003 11959119
-0.177 -0.042000003 0.77100003 11696978
-0.17400001 -0.042000003 0.77100003 12289375
-0.171 -0.042000003 0.77100003 12421476
-0.16800001 -0.042000003 0.77100003 12487785
-0.16500001 -0.042000003 0.77100003 12421992
-0.16100001 -0.042000003 0.77100003 12487785
-0.15800001 -0.042000003 0.77100003 12619371
-0.155 -0.041000001 0.77100003 12487785
-0.15200001 -0.041000001 0.77100003 12290406
-0.149 -0.041000001 0.77100003 12487785
-0.14600001 -0.041000001 0.77200001 12421992
-0.142 -0.041000001 0.77200001 12487783
-0.13900001 -0.041000001 0.77200001 12487783
-0.13600001 -0.041000001 0.77200001 12487783
-0.133 -0.041000001 0.77200001 12421992
-0.13000001 -0.041000001 0.77200001 12487783
-0.126 -0.041000001 0.77100003 12421991
-0.123 -0.041000001 0.77100003 12421992
-0.12 -0.041000001 0.77200001 12356199
-0.11700001 -0.041000001 0.77200001 12356199
-0.11400001 -0.041000001 0.77200001 12487785
-0.11100001 -0.041000001 0.77200001 12487785
-0.108 -0.041000001 0.77200001 12421992
-0.105 -0.041000001 0.77200001 12356199
-0.10200001 -0.041000001 0.77200001 12224614
-0.098000005 -0.041000001 0.77200001 12290407
-0.095000006 -0.041000001 0.77200001 12158822
-0.092000008 -0.041000001 0.77200001 12290152
-0.089000002 -0.041000001 0.77200001 12355946
-0.086000003 -0.041000001 0.77200001 12290153
-0.083000004 -0.041000001 0.77200001 12421739
-0.080000006 -0.041000001 0.77200001 12355946
-0.077000007 -0.041000001 0.77200001 12290153
-0.074000001 -0.041000001 0.77200001 12355946
-0.07 -0.041000001 0.77200001 12290408
-0.067000002 -0.041000001 0.77200001 12356201
-0.064000003 -0.041000001 0.77200001 12421994
-0.061000004 -0.041000001 0.77200001 12290408
-0.058000002 -0.041000001 0.77200001 12224360
-0.055000003 -0.041000001 0.77200001 12159080
-0.052000001 -0.041000001 0.77200001 12093289
-0.049000002 -0.041000001 0.77200001 12224360
-0.046000004 -0.041000001 0.77200001 12093287
-0.043000001 -0.041000001 0.77200001 12092774
-0.040000003 -0.041000001 0.77200001 12093289
-0.037 -0.041000001 0.77100003 12158569
-0.033 -0.041000001 0.77100003 12092776
-0.030000001 -0.041000001 0.77100003 11961190
-0.027000001 -0.041000001 0.77100003 12026985
-0.024 -0.041000001 0.77100003 11961192
-0.021000002 -0.041000001 0.77100003 11960938
-0.018000001 -0.041000001 0.77200001 11503736
-0.015000001 -0.041000001 0.77200001 12427675
-0.012 -0.041000001 0.77200001 13153718
-0.0090000005 -0.041000001 0.77200001 13417663
-0.0060000001 -0.041000001 0.77200001 14405585
-0.003 -0.041000001 0.77200001 14668757
0 -0.041000001 0.77200001 14603223
0.003 -0.041000001 0.77200001 14603223
0.0060000001 -0.041000001 0.77200001 14669014
0.0090000005 -0.041000001 0.77200001 14274001
0.013 -0.041000001 0.77200001 12431025
0.016000001 -0.041000001 0.77200001 12233646
0.019000001 -0.041000001 0.77300006 12167853
0.022000002 -0.041000001 0.77300006 13023932
0.025 -0.041000001 0.77300006 13550276
0.028000001 -0.041000001 0.77400005 13879754
0.031000001 -0.041000001 0.77400005 13616580
0.034000002 -0.041000001 0.77400005 13813447
0.037 -0.041000001 0.77500004 14339790
0.040000003 -0.041000001 0.77500004 14274510
0.043000001 -0.041000001 0.77500004 13945032
0.047000002 -0.041000001 0.77600002 14537171
0.050000001 -0.041000001 0.77600002 14537171
0.053000003 -0.041000001 0.77600002 14537171
0.056000002 -0.041000001 0.77600002 14602964
0.059000004 -0.041000001 0.77600002 14668757
0.062000003 -0.041000001 0.77600002 14603477
0.065000005 -0.041000001 0.77700001 14537427
0.068000004 -0.041000001 0.77700001 14602964
0.071000002 -0.041000001 0.77700001 13484996
0.075000003 -0.041000001 0.77700001 13352381
0.078000002 -0.041000001 0.77700001 13154488
0.081 -0.041000001 0.77700001 12955820
0.084000006 -0.041000001 0.77700001 12954278
0.087000005 -0.041000001 0.77700001 12296087
0.090000004 -0.041000001 0.77700001 11504509
0.093000002 -0.041000001 0.77700001 11107431
0.096000001 -0.041000001 0.77700001 12421743
0.1 -0.041000001 0.77700001 13211518
0.10300001 -0.041000001 0.77700001 12158829
0.10600001 -0.042000003 0.77700001 11632486
0.109 -0.042000003 0.77700001 11171935
0.112 -0.041000001 0.77600002 10908763
0.115 -0.042000003 0.77700001 10711385
0.11800001 -0.042000003 0.77600002 10908765
0.12200001 -0.042000003 0.77700001 10843486
0.125 -0.042000003 0.77700001 11238245
0.12800001 -0.042000003 0.77700001 10646365
0.13100001 -0.042000003 0.77700001 10646622
0.134 -0.042000003 0.77800006 8412491
0.13700001 -0.042000003 0.77700001 3681834
0.141 -0.042000003 0.77800006 3287597
-0.83500004 -0.081 1.508 6975085
-0.82600003 -0.081 1.5070001 6646632
-0.81700003 -0.081 1.5040001 5198929
-0.80500007 -0.080000006 1.4970001 3948609
-0.79700005 -0.080000006 1.4970001 3158840
-0.78900003 -0.080000006 1.4960001 3026486
-0.78200006 -0.080000006 1.4960001 3157814
-0.77300006 -0.080000006 1.4940001 2830390
-0.76900005 -0.080000006 1.501 4738390
-0.76300001 -0.080000006 1.5050001 2766154
-0.76800001 -0.083000004 1.5600001 3751766
-0.76700002 -0.083000004 1.575 6051930
-0.78200006 -0.086000003 1.6220001 14010284
-0.81200004 -0.090000004 1.702 14340535
-0.80600005 -0.090000004 1.7060001 14209211
-0.79900002 -0.090000004 1.7090001 12696751
-0.79100001 -0.090000004 1.71 12170667
-0.78200006 -0.090000004 1.7090001 12565427
-0.77100003 -0.089000002 1.702 12697015
-0.75700003 -0.088000007 1.6900001 13223103
-0.73000002 -0.086000003 1.646 14211027
-0.71300006 -0.085000001 1.6250001 13026753
-0.70400006 -0.085000001 1.6220001 12632000
-0.69600004 -0.085000001 1.6220001 12632515
-0.68900001 -0.085000001 1.6240001 12500675
-0.68200004 -0.085000001 1.626 7502470
-0.67700005 -0.085000001 1.631 7042439
-0.67200005 -0.085000001 1.6370001 7304842
-0.66900003 -0.085000001 1.6480001 10726077
-0.66600001 -0.086000003 1.6610001 11778765
-0.61300004 -0.084000006 1.6420001 6843776
-0.60400003 -0.084000006 1.6370001 7830926
-0.58400005 -0.082000002 1.6010001 8554648
-0.55300003 -0.083000004 1.6170001 11633753
-0.257 -0.040000003 0.78200006 12030576
-0.24900001 -0.039000001 0.76900005 11830364
-0.245 -0.039000001 0.76700002 11961692
-0.24200001 -0.039000001 0.76700002 11763286
-0.23800001 -0.039000001 0.76600003 11565392
-0.23500001 -0.039000001 0.76700002 11696200
-0.23200001 -0.039000001 0.76800001 11761740
-0.22900002 -0.039000001 0.76900005 12024914
-0.22600001 -0.039000001 0.76900005 11893841
-0.223 -0.039000001 0.77000004 11761998
-0.22000001 -0.039000001 0.77000004 11695947
-0.21600001 -0.039000001 0.77000004 11959120
-0.21300001 -0.039000001 0.77000004 12287827
-0.21000001 -0.039000001 0.77000004 12090449
-0.20700002 -0.039000001 0.77100003 11893581
-0.20300001 -0.039000001 0.77100003 11827533
-0.2 -0.039000001 0.77100003 11893326
-0.19700001 -0.039000001 0.77100003 11761740
-0.19400001 -0.039000001 0.77100003 11959121
-0.19000001 -0.039000001 0.77100003 11827535
-0.18700001 -0.039000001 0.77200001 11761744
-0.18400002 -0.039000001 0.77200001 11827537
-0.18100001 -0.039000001 0.77200001 11827535
-0.178 -0.039000001 0.77200001 11761743
-0.17400001 -0.039000001 0.77200001 12224094
-0.171 -0.039000001 0.77200001 12355423
-0.16800001 -0.039000001 0.77200001 12422505
-0.16500001 -0.039000001 0.77200001 12553578
-0.162 -0.038000003 0.77200001 12619371
-0.15800001 -0.038000003 0.77200001 12619371
-0.155 -0.038000003 0.77200001 12619371
-0.15200001 -0.038000003 0.77200001 12750957
-0.149 -0.038000003 0.77200001 12356199
-0.14600001 -0.038000003 0.77200001 12421992
-0.14300001 -0.038000003 0.77300006 12553576
-0.13900001 -0.038000003 0.77200001 12487783
-0.13600001 -0.038000003 0.77200001 12553576
-0.133 -0.038000003 0.77200001 12487782
-0.13000001 -0.038000003 0.77200001 12553576
