# .PCD v0.7 - Point Cloud Data file format
VERSION 0.7
FIELDS x y z rgb
SIZE 4 4 4 4
TYPE F F F U
COUNT 1 1 1 1
WIDTH 1236
HEIGHT 1
VIEWPOINT 0 0 0 1 0 0 0
POINTS 1236
DATA ascii
-1.199 -0.037 1.9070001 4474704
-1.2010001 -0.029000001 1.909 4408911
-1.2090001 0.031000001 1.9050001 4408140
-1.2110001 0.039000001 1.909 4408139
-1.2110001 0.056000002 1.9080001 4276807
0.62800002 0.060000002 1.9070001 1710361
0.63700002 0.060000002 1.9080001 1841434
0.64500004 0.060000002 1.909 1972763
0.65400004 0.060000002 1.909 1775383
0.66200006 0.060000002 1.909 1709076
0.72200006 0.060000002 1.9080001 3945775
-1.2090001 0.065000005 1.9050001 4079685
0.68700004 0.068000004 1.9060001 1842204
0.69500005 0.068000004 1.9050001 1841946
0.70500004 0.068000004 1.9080001 1907995
0.71400005 0.068000004 1.9080001 1973531
0.73100001 0.068000004 1.909 1973276
0.72200006 0.076000005 1.9070001 2566180
0.73100001 0.076000005 1.9070001 2697511
0.73900002 0.076000005 1.9070001 2763048
-1.199 0.082000002 1.9060001 4144446
0.50400001 0.082000002 1.9060001 1973792
0.76600003 0.085000001 1.9070001 3354414
0.77400005 0.085000001 1.9060001 2762793
0.78300005 0.085000001 1.9050001 2433827
0.79200006 0.085000001 1.9070001 2302242
-1.189 0.090000004 1.9060001 4144700
0.51300001 0.090000004 1.909 5130314
0.84600002 0.094000004 1.9060001 2829101
0.95900005 0.095000006 1.909 2698027
0.96900004 0.095000006 1.9080001 2763308
0.97700006 0.095000006 1.9060001 2566185
0.98800004 0.096000001 1.909 2631979
0.89200002 0.10200001 1.9050001 2434341
0.90100002 0.10200001 1.9050001 2039585
0.91100007 0.10300001 1.9060001 2039842
1.0780001 0.11400001 1.909 2171169
1.302 0.13500001 1.909 2565925
-0.88200003 0.37300003 1.9050001 4798253
-0.88500005 0.40700001 1.9070001 4272682
-0.88500005 0.41500002 1.9060001 4075817
-0.88600004 0.42400002 1.9060001 4075816
-0.88700002 0.43300003 1.9080001 4075304
-0.88800007 0.45700002 1.9050001 3944230
-0.88900006 0.46700001 1.9070001 4075559
-0.88900006 0.47500002 1.9050001 3878438
-0.89500004 0.52700001 1.9080001 3285790
-0.89400005 0.53500003 1.9060001 3351581
-0.88700002 0.56900001 1.9050001 3945001
-0.78800005 0.588 1.9080001 5390647
-0.85300004 0.59400004 1.9080001 1644313
-0.84400004 0.59300005 1.909 1841177
-0.74300003 0.59300005 1.9070001 5851453
-0.73500001 0.59300005 1.9080001 6048577
-0.72600001 0.59300005 1.909 6114624
-0.62 0.59400004 1.9070001 2104087
-0.60300004 0.60100001 1.9060001 1381144
-0.50200003 0.61200005 1.9050001 8148805
-0.49400002 0.61200005 1.9060001 8477770
-0.48600003 0.61200005 1.9070001 8279878
-0.47800002 0.61200005 1.909 8214087
-0.42100003 0.61700004 1.9070001 9003083
-0.41300002 0.61700004 1.9080001 9068364
-0.347 0.62200004 1.9060001 9067846
-0.34 0.62200004 1.9070001 9265486
-0.33200002 0.62200004 1.909 8477257
-0.30000001 0.62100005 1.909 3680551
-0.27500001 0.62 1.9080001 9264966
-0.26700002 0.62700003 1.9060001 9659464
-0.15700001 0.634 1.909 9461317
-0.094000004 0.63200003 1.9060001 9994358
-0.141 0.64100003 1.9050001 9592646
-0.133 0.64100003 1.9060001 9395265
-0.125 0.64200002 1.9080001 9132353
-0.11700001 0.64100003 1.9060001 9001281
-0.109 0.64100003 1.9050001 8015673
0.54200006 0.70000005 1.9050001 4010801
0.56 0.70200002 1.9050001 3945520
0.67300004 0.71000004 1.9050001 4404269
0.69100004 0.71200001 1.9070001 4732719
0.70000005 0.71300006 1.9060001 4536110
0.71000004 0.71400005 1.9080001 4469545
0.71800005 0.71400005 1.9070001 4535338
0.72700006 0.71400005 1.9050001 4732717
0.74500006 0.71600002 1.9050001 4601899
0.75400001 0.71700001 1.9050001 4667178
0.76400006 0.71800005 1.9070001 4732970
0.77400005 0.72000003 1.909 4601383
0.82000005 0.72400004 1.909 4732456
0.82900006 0.72500002 1.9080001 4864297
0.83700001 0.72500002 1.9050001 4798248
0.86700004 0.72800004 1.9070001 4600613
0.87500006 0.72800004 1.9050001 4863785
0.88600004 0.73000002 1.9070001 4732456
0.89500004 0.73000002 1.9050001 5127214
0.90600002 0.73300004 1.9080001 5193007
0.91500002 0.73300004 1.9070001 4995628
0.92400002 0.73400003 1.9060001 4929835
-1.3700001 -0.27700001 1.914 3686232
-1.3430001 -0.26700002 1.9100001 2632759
-1.309 -0.257 1.9120001 1249564
-1.2980001 -0.25600001 1.9120001 1381406
-1.276 -0.25500003 1.9130001 1579038
-1.253 -0.245 1.9120001 3750983
-1.2210001 -0.23500001 1.914 7238265
-1.1450001 -0.22400001 1.914 4407880
-1.1850001 -0.17400001 1.914 4275264
-1.1930001 -0.14 1.9100001 4474185
-1.192 -0.13100001 1.9100001 4605771
-1.194 -0.123 1.9130001 4605774
-1.194 -0.11400001 1.9130001 4671311
-1.194 -0.10600001 1.914 4671570
0.95200002 -0.036000002 1.914 5988981
-1.2010001 -0.020000001 1.9100001 4605520
-1.2010001 -0.012 1.9100001 4539726
-1.2030001 -0.003 1.9130001 4605516
1.2360001 -0.003 1.9120001 2369327
1.2590001 -0.003 1.914 2435121
-1.212 0.048 1.9100001 4342346
0.671 0.060000002 1.9100001 1840662
0.74100006 0.061000004 1.9110001 8157043
0.72300005 0.068000004 1.9100001 1841947
0.74200004 0.069000006 1.9130001 2170141
-1.2040001 0.074000001 1.914 4276036
0.74900001 0.077000007 1.9100001 2631720
0.75900006 0.077000007 1.9130001 2565927
0.96000004 0.079000004 1.9110001 1776409
0.97000003 0.079000004 1.9120001 2237218
0.97900003 0.079000004 1.9110001 2632232
0.80300003 0.085000001 1.9100001 2433828
0.81200004 0.085000001 1.9100001 2565927
0.82100004 0.085000001 1.9100001 2697000
0.83100003 0.086000003 1.914 2828586
0.50600004 0.090000004 1.9120001 2564902
-1.1720001 0.099000007 1.9130001 4275516
0.93300003 0.095000006 1.914 2565927
0.94200003 0.095000006 1.9130001 2565927
0.95100003 0.095000006 1.9110001 2500647
0.99900007 0.096000001 1.9110001 2566440
1.0090001 0.096000001 1.9120001 2632233
1.0300001 0.096000001 1.914 2566438
1.0500001 0.097000003 1.914 2369060
-1.1600001 0.10700001 1.9100001 4275516
1.0380001 0.105 1.9100001 2171169
1.0480001 0.105 1.9100001 2434342
1.0600001 0.105 1.9130001 2500647
-1.1290001 0.123 1.9110001 4275516
1.2040001 0.125 1.9110001 2039585
1.2160001 0.125 1.9120001 2236964
1.2260001 0.125 1.9110001 2434341
-0.87600005 0.13500001 1.9110001 4337961
1.314 0.13600001 1.9100001 2500134
1.3280001 0.13600001 1.9130001 2500134
-0.86900002 0.21600001 1.9110001 4799027
-0.87100005 0.27400002 1.9120001 4798513
-0.89000005 0.45000002 1.9110001 3944230
-0.89400005 0.50200003 1.9110001 3154715
-0.89400005 0.51000005 1.9100001 3351583
-0.89600003 0.52000004 1.9120001 3285788
-0.89700001 0.546 1.9110001 3549473
-0.89000005 0.56300002 1.9130001 3746856
-0.87300003 0.57900006 1.9130001 2695452
-0.82700002 0.58400005 1.9130001 2432283
-0.81700003 0.583 1.9110001 4208432
-0.80800003 0.583 1.9130001 4865073
-0.86300004 0.58600003 1.9100001 1643799
-0.78000003 0.588 1.9100001 5588280
-0.77300006 0.58900005 1.914 5588280
-0.648 0.58900005 1.9130001 6705996
-0.71900004 0.59300005 1.9130001 6377800
-0.71000004 0.59300005 1.9130001 6443337
-0.597 0.60200006 1.9120001 1708564
-0.58900005 0.60200006 1.914 1511698
-0.47000003 0.61200005 1.9100001 8477257
-0.46200001 0.61200005 1.9110001 8937548
-0.45500001 0.61200005 1.9130001 8937289
-0.40500003 0.61700004 1.9100001 9331790
-0.39700001 0.61700004 1.9110001 9331536
-0.38900003 0.61700004 1.9120001 9002825
-0.38100001 0.61700004 1.914 9067850
-0.324 0.62300003 1.9110001 1906195
-0.31600001 0.62200004 1.9110001 1906196
-0.30800003 0.62200004 1.9100001 1775126
-0.26000002 0.62900001 1.9100001 9922636
-0.20400001 0.62700003 1.9110001 2431258
-0.10200001 0.634 1.9120001 10059895
0.50200003 0.69200003 1.9130001 3551533
0.78300005 0.72100002 1.9100001 4995630
0.79300004 0.72200006 1.9110001 4929835
0.80200005 0.72300005 1.9100001 4864297
0.81100005 0.72400004 1.9100001 4798249
-1.3610001 -0.27700001 1.9180001 4015456
-1.335 -0.26700002 1.9150001 3290949
-1.3230001 -0.266 1.9150001 4014930
-1.3150001 -0.266 1.9190001 5001824
-1.302 -0.266 1.9170001 5725547
-1.2800001 -0.26500002 1.9180001 6646136
-1.289 -0.25600001 1.9150001 1447457
-1.266 -0.25500003 1.9150001 1381661
-1.256 -0.25500003 1.9160001 1315870
-1.2440001 -0.245 1.9150001 4803671
-1.21 -0.23500001 1.9150001 7698559
-1.199 -0.23500001 1.9150001 8159109
-1.1880001 -0.16600001 1.9180001 4144961
-1.1950001 -0.097000003 1.9150001 4540239
-1.1950001 -0.089000002 1.9160001 4474702
-1.1960001 -0.080000006 1.9180001 4605520
0.75100005 -0.051000003 1.9160001 5857654
0.94300002 -0.036000002 1.9160001 5988982
0.97200006 -0.036000002 1.9160001 6054773
1.2490001 -0.003 1.9160001 2171947
-1.205 0.0050000004 1.9160001 4539726
-1.207 0.014 1.9190001 4473934
0.75100005 0.069000006 1.9150001 2038556
0.76900005 0.077000007 1.9150001 2499877
0.77900004 0.077000007 1.9170001 2302242
0.95500004 0.079000004 1.9190001 1776152
-1.1950001 0.082000002 1.9170001 4144959
0.84200007 0.086000003 1.9170001 2565927
0.94500005 0.087000005 1.9180001 2171169
0.95400006 0.087000005 1.9180001 2105375
0.96200007 0.087000005 1.9150001 2039583
0.97200006 0.087000005 1.9160001 2105376
0.98200005 0.088000007 1.9150001 1842717
0.99200004 0.088000007 1.9170001 1974303
-1.184 0.090000004 1.9160001 4210236
0.86000001 0.094000004 1.9170001 2434343
0.88900006 0.095000006 1.9190001 5000526
0.91500002 0.095000006 1.9160001 2237220
0.92500007 0.095000006 1.9160001 2236962
1.021 0.096000001 1.9150001 2566440
1.0420001 0.097000003 1.9170001 2434852
1.0610001 0.097000003 1.9160001 2434340
1.0710001 0.105 1.9150001 2369061
-1.1420001 0.115 1.9150001 4275514
1.2410001 0.126 1.9170001 2434341
1.253 0.126 1.9190001 1842204
-0.87000006 0.15200001 1.9190001 4206375
-0.87100005 0.20900001 1.9170001 4930098
-0.87200004 0.22500001 1.9190001 4864306
-0.87100005 0.23300001 1.9150001 4864306
-0.87300003 0.24200001 1.9190001 4930099
-0.87300003 0.25800002 1.9180001 4798513
-0.87300003 0.266 1.9170001 4733234
-0.87300003 0.28300002 1.9150001 4667441
-0.87400001 0.29100001 1.9160001 4667439
-0.87500006 0.29900002 1.9170001 4470318
-0.87600005 0.31600001 1.9180001 4666927
-0.88200003 0.57200003 1.9150001 4338731
-0.80000001 0.583 1.9150001 5127478
-0.76500005 0.58900005 1.9170001 5654071
-0.75600004 0.58900005 1.9190001 5588536
-0.70200002 0.59300005 1.9160001 6444359
-0.69300002 0.59300005 1.9170001 3681318
-0.68500006 0.59200001 1.9180001 2103064
-0.67600006 0.59200001 1.9180001 1840916
-0.65800005 0.59100002 1.9180001 3352613
-0.53100002 0.60900003 1.9180001 7623235
-0.52100003 0.60700005 1.9150001 7820101
-0.51300001 0.60700005 1.9160001 7886148
-0.505 0.60700005 1.9180001 8149318
-0.49700001 0.60700005 1.9180001 8477769
-0.44700003 0.61200005 1.9150001 8806471
-0.43900001 0.61200005 1.9170001 9068875
-0.43100002 0.61200005 1.9190001 9003852
-0.29200003 0.61400002 1.9150001 8804930
-0.094000004 0.611 1.9190001 10125944
-0.086000003 0.61000001 1.9150001 10126457
-0.37300003 0.61700004 1.9150001 9133643
-0.36500001 0.61700004 1.9160001 9199436
-0.35700002 0.61800003 1.9180001 9002057
-0.26900002 0.62300003 1.9190001 9528138
-0.21300001 0.62900001 1.9150001 2167319
-0.094000004 0.62700003 1.9160001 9929078
-0.25300002 0.63000005 1.9150001 9857098
-0.245 0.63000005 1.9160001 9332296
-0.23700002 0.63000005 1.9180001 2234136
-0.22900002 0.63000005 1.9180001 2168600
-0.22100002 0.63000005 1.9170001 1970967
-0.149 0.63600004 1.9160001 9198145
0.51100004 0.69300002 1.9160001 3813935
0.52000004 0.69500005 1.9180001 3945264
0.528 0.69500005 1.9180001 4010801
0.537 0.69600004 1.9180001 4010801
0.546 0.69600004 1.9180001 3945008
0.55400002 0.69700003 1.9170001 3945262
0.56200004 0.69700003 1.9170001 4011055
0.57100004 0.69800001 1.9180001 3813676
0.58000004 0.69900006 1.9180001 3945260
0.58900005 0.69900006 1.9180001 4076333
0.597 0.70000005 1.9180001 3945003
0.60600001 0.70000005 1.9180001 4010540
0.61500001 0.70100003 1.9180001 3944747
0.62400001 0.70200002 1.9180001 3945001
0.63200003 0.70200002 1.9170001 4076333
0.64100003 0.70300001 1.9180001 4404784
0.65000004 0.70300001 1.9170001 4273455
0.66800004 0.70500004 1.9190001 4272940
0.75900006 0.71300006 1.9190001 4667178
0.85200006 0.72200006 1.9190001 4864042
0.86100006 0.72200006 1.9180001 4535332
0.87100005 0.72400004 1.9190001 4469026
0.91900003 0.72800004 1.9180001 4667176
0.92900002 0.72900003 1.9190001 4732969
0.93800002 0.73000002 1.9170001 4798762
-1.3520001 -0.27700001 1.9220001 4279140
-1.2930001 -0.26500002 1.9200001 6120303
-1.271 -0.26500002 1.9210001 7172481
-1.261 -0.264 1.9230001 2633278
-1.238 -0.24600001 1.9230001 5658723
-1.149 -0.208 1.9210001 4143421
-1.1810001 -0.18300001 1.9240001 4209725
-1.1900001 -0.15700001 1.9230001 4407620
-1.197 -0.072000004 1.9200001 4671311
-1.199 -0.063000001 1.9230001 4539726
-1.199 -0.055000003 1.9240001 4474704
0.90000004 -0.060000002 1.9240001 3422535
0.76200002 -0.051000003 1.9210001 5726582
0.78000003 -0.051000003 1.9210001 7173001
0.91700006 -0.052000001 1.9200001 6186358
0.94600004 -0.044000003 1.9210001 6120566
0.98500007 -0.036000002 1.9220001 5067619
0.99400002 -0.036000002 1.9210001 5330789
-1.2090001 0.022000002 1.9230001 4408141
-1.2080001 0.065000005 1.9210001 3947585
0.76200002 0.069000006 1.9200001 2170141
0.77100003 0.069000006 1.9210001 2170140
0.78100002 0.069000006 1.9230001 1972759
0.78900003 0.077000007 1.9210001 2301985
0.80800003 0.078000002 1.9240001 2104349
0.82600003 0.078000002 1.9240001 1841945
0.94600004 0.079000004 1.9200001 1578773
0.85400003 0.086000003 1.9240001 2631720
0.93700004 0.087000005 1.9210001 2236962
1.005 0.088000007 1.9230001 1974303
1.0140001 0.088000007 1.9200001 1974301
1.034 0.089000002 1.9220001 2039583
1.0450001 0.089000002 1.9230001 1776411
1.054 0.089000002 1.9210001 1776667
1.0630001 0.089000002 1.9200001 1842203
-1.1670001 0.099000007 1.9230001 4210493
0.88000005 0.095000006 1.9200001 1973791
0.89900005 0.095000006 1.9200001 3553080
0.90900004 0.095000006 1.9220001 1974049
1.0730001 0.097000003 1.9200001 2368034
-1.156 0.10700001 1.9210001 4209723
-1.125 0.12400001 1.9220001 4209723
1.199 0.125 1.9200001 2105890
-0.87200004 0.16000001 1.9220001 4337959
-0.87200004 0.16800001 1.9210001 4601133
-0.87300003 0.185 1.9240001 4864306
-0.87200004 0.193 1.9210001 4864305
-0.87200004 0.20100001 1.9200001 4864306
-0.87400001 0.25 1.9210001 4864306
-0.87600005 0.30800003 1.9200001 4666926
-0.87900007 0.33400002 1.9230001 4732719
-0.89300007 0.55600005 1.9210001 3681059
-0.88600004 0.565 1.9240001 4469034
-0.87700003 0.57300001 1.9240001 4338476
-0.86700004 0.58100003 1.9220001 1774869
-0.79300004 0.583 1.9200001 5325108
-0.78500003 0.58400005 1.9240001 5456694
-0.85900003 0.58900005 1.9230001 1709078
-0.84000003 0.588 1.9220001 1841177
-0.74800003 0.58900005 1.9210001 5719866
-0.74000001 0.58900005 1.9240001 5851452
-0.66800004 0.59200001 1.9200001 1709076
-0.60900003 0.59800005 1.9240001 1446163
-0.48900002 0.60700005 1.9210001 8345925
-0.48200002 0.60800004 1.9230001 8148805
-0.47300002 0.60800004 1.9240001 8543304
-0.29300001 0.60800004 1.9230001 9923668
-0.42300001 0.61200005 1.9200001 9003082
-0.41500002 0.61300004 1.9230001 9068618
-0.40700001 0.61300004 1.9240001 9200204
-0.35000002 0.61800003 1.9200001 8936773
-0.34200001 0.61800003 1.9200001 9199950
-0.33400002 0.61800003 1.9230001 7295298
-0.31 0.61800003 1.9240001 1905685
-0.27700001 0.61600006 1.9210001 9725517
-0.26200002 0.625 1.9240001 9725003
-0.15800001 0.63000005 1.9230001 9395265
-0.142 0.63800001 1.9210001 9395524
-0.134 0.63800001 1.9210001 9197887
-0.126 0.63800001 1.9220001 9263679
-0.11800001 0.63800001 1.9210001 8803385
-0.11000001 0.63700002 1.9200001 8148033
0.49500003 0.68600005 1.9220001 3551282
0.66000003 0.70500004 1.9200001 4075819
0.67700005 0.70700002 1.9200001 4272683
0.68600005 0.70700002 1.9200001 4601903
0.69600004 0.70900005 1.9220001 4798511
0.70500004 0.71000004 1.9230001 4535339
0.71400005 0.71100003 1.9230001 4469547
0.72400004 0.71100003 1.9230001 4601385
0.73200005 0.71100003 1.9210001 4601131
0.74100006 0.71200001 1.9200001 4404520
0.75000006 0.71300006 1.9200001 4536106
0.76900005 0.71500003 1.9210001 4404263
0.77800006 0.71600002 1.9220001 4864557
0.78800005 0.71700001 1.9230001 4798508
0.79700005 0.71800005 1.9230001 4798506
0.82500005 0.72000003 1.9230001 4732968
0.83400005 0.72100002 1.9210001 4667175
0.84300005 0.72100002 1.9200001 4535332
0.88200003 0.72500002 1.9210001 4929577
0.89100003 0.72600001 1.9210001 4798249
0.90100002 0.72700006 1.9210001 5193007
0.91000003 0.72800004 1.9200001 4929835
-1.3430001 -0.27700001 1.9250001 4477033
-1.3310001 -0.27700001 1.9250001 4937072
-1.3210001 -0.27600002 1.927 5266548
-1.3110001 -0.27600002 1.9290001 5595512
-1.251 -0.25500003 1.9250001 1710628
-1.1620001 -0.2 1.9260001 4143421
-1.192 -0.149 1.9260001 4407879
-1.1930001 -0.141 1.9280001 4539979
0.77300006 -0.051000003 1.9260001 5002597
-1.2010001 -0.046000004 1.9260001 4540495
-1.202 -0.038000003 1.9280001 4408911
1.0070001 -0.036000002 1.927 5462373
1.016 -0.036000002 1.9260001 5593959
-1.202 -0.029000001 1.9290001 4474704
-1.202 -0.020000001 1.9290001 4605519
1.268 -0.012 1.9280001 2435121
-1.2110001 0.031000001 1.9260001 4473933
-1.212 0.040000003 1.927 4408139
-1.212 0.048 1.927 4408139
-1.2110001 0.057000004 1.9250001 4211014
-1.202 0.074000001 1.9280001 4079168
0.80000001 0.078000002 1.9260001 2170140
0.81800002 0.078000002 1.9260001 2038556
0.83600003 0.078000002 1.9260001 1907484
0.84600002 0.078000002 1.927 1841947
0.93100005 0.079000004 1.9290001 1447189
0.93900007 0.079000004 1.9250001 1644311
-1.192 0.082000002 1.9280001 4276032
0.86400002 0.086000003 1.9250001 2566440
0.87400001 0.087000005 1.927 2500647
0.92100006 0.087000005 1.9280001 2368549
0.92900002 0.087000005 1.9250001 2368548
1.026 0.089000002 1.9250001 1842715
-1.1800001 0.091000006 1.927 4275516
0.87400001 0.095000006 1.927 3158065
1.0880001 0.10600001 1.927 2500134
-1.1390001 0.116 1.9280001 4275515
1.225 0.11700001 1.927 2434339
1.235 0.11800001 1.9260001 2631718
1.1930001 0.125 1.927 2171682
1.268 0.127 1.9250001 2434341
1.327 0.12800001 1.9290001 2302754
1.35 0.12900001 1.9290001 3750202
-0.87400001 0.14400001 1.9280001 4272168
-0.87400001 0.177 1.9250001 4930099
-0.87900007 0.32600001 1.9250001 4666927
-0.88200003 0.35200003 1.9280001 8086872
-0.88300002 0.377 1.9260001 14335918
-0.88500005 0.38600001 1.9290001 12296591
-0.88400006 0.39400002 1.927 7032903
-0.88400006 0.40200001 1.9260001 5060143
-0.88500005 0.41000003 1.9260001 4468776
-0.88600004 0.42800003 1.927 4207145
-0.89000005 0.48800004 1.9260001 3285533
-0.89500004 0.54900002 1.9260001 3549473
-0.82200003 0.57900006 1.9260001 3484714
-0.81400001 0.57800001 1.9280001 4865076
-0.77800006 0.58400005 1.9280001 5654071
-0.73200005 0.58900005 1.9250001 5983553
-0.72300005 0.58900005 1.927 6180933
-0.71500003 0.58900005 1.9280001 6509900
-0.85200006 0.59000003 1.927 1906457
-0.60200006 0.59900004 1.9290001 1643285
-0.46500003 0.60700005 1.9250001 8740680
-0.45700002 0.60800004 1.927 8740679
-0.45000002 0.60800004 1.9290001 8674887
-0.40000001 0.61300004 1.9260001 9397583
-0.39200002 0.61400002 1.9280001 9068618
-0.384 0.61300004 1.9280001 9396815
-0.32600001 0.61900002 1.9250001 2103315
-0.31800002 0.61800003 1.9250001 1710104
-0.19800001 0.61600006 1.9290001 9857097
-0.20600002 0.62400001 1.9260001 2694172
-0.094000004 0.62200004 1.9250001 10060664
-0.25400001 0.625 1.927 9726030
-0.10200001 0.63000005 1.9260001 9994615
0.48700002 0.67800003 1.927 3551540
0.505 0.68800002 1.9280001 3813936
0.80700004 0.71900004 1.9250001 4666918
0.81700003 0.72000003 1.9250001 4667175
0.95300007 0.72600001 1.9280001 4930090
-1.3010001 -0.27600002 1.932 6055805
-1.289 -0.27500001 1.9300001 6647175
-1.2800001 -0.27500001 1.9340001 6910861
-1.2670001 -0.27400002 1.9310001 6845322
-1.2550001 -0.26500002 1.9310001 1513248
-1.245 -0.25600001 1.9340001 2565936
-1.2320001 -0.24600001 1.932 5987944
-1.223 -0.24600001 1.9340001 6448494
-1.176 -0.192 1.932 4275519
-1.194 -0.132 1.9300001 4605772
-1.194 -0.12400001 1.9310001 4605774
-1.1950001 -0.115 1.932 4540495
-1.1950001 -0.10700001 1.9330001 4606290
-1.1950001 -0.098000005 1.9330001 4605775
0.90300006 -0.069000006 1.9310001 5856102
1.0400001 -0.037 1.9340001 3751757
1.2720001 -0.029000001 1.9340001 6449523
1.25 -0.021000002 1.9340001 2435121
1.2600001 -0.021000002 1.9330001 2632496
1.2700001 -0.021000002 1.9310001 2435119
-1.205 -0.012 1.9330001 4605519
1.184 -0.012 1.9330001 2368811
1.2060001 -0.012 1.9330001 2106152
1.2160001 -0.012 1.9330001 3027254
1.228 -0.012 1.9340001 2106153
1.2470001 -0.012 1.9300001 2237740
1.258 -0.012 1.9300001 1974568
1.281 -0.012 1.9300001 2172206
1.2930001 -0.012 1.9310001 2237999
-1.205 -0.003 1.9340001 4539724
0.85700005 0.078000002 1.9310001 1775898
0.92200005 0.079000004 1.9310001 1578519
0.88600004 0.087000005 1.9340001 2434856
0.90500003 0.087000005 1.9340001 2565928
0.91400003 0.087000005 1.932 2434341
-1.164 0.099000007 1.9340001 4341308
-1.151 0.108 1.9310001 4209722
1.2160001 0.11700001 1.9300001 1907997
1.25 0.11800001 1.932 2631718
1.2620001 0.11800001 1.9340001 2565927
-0.88500005 0.12800001 1.932 4338731
1.3060001 0.12800001 1.932 2894893
1.3180001 0.12800001 1.9330001 2500134
1.34 0.12900001 1.9310001 3158064
-1.1010001 0.132 1.9330001 4275003
-0.87500006 0.13600001 1.9300001 4403754
-0.88300002 0.34300002 1.9300001 4732463
-0.88500005 0.36900002 1.932 14271154
-0.88800007 0.42000002 1.9310001 4272426
-0.88800007 0.43700001 1.9300001 4075304
-0.89000005 0.44600001 1.932 4010023
-0.89000005 0.45500001 1.932 3944230
-0.89200002 0.47200003 1.932 3812388
-0.89200002 0.48000002 1.9310001 3417374
-0.89400005 0.50700003 1.932 3417376
-0.89600003 0.52500004 1.9330001 3154717
-0.88000005 0.56700003 1.9330001 4338475
-0.87100005 0.57500005 1.9310001 1906198
-0.80500007 0.57800001 1.9300001 5127475
-0.79700005 0.57900006 1.9330001 5324854
-0.86200005 0.583 1.9310001 1774871
-0.83500004 0.58100003 1.9330001 2103835
-0.77000004 0.58500004 1.9310001 5719608
-0.76200002 0.58500004 1.9340001 5654073
-0.70700002 0.58900005 1.932 6575944
-0.69800001 0.588 1.9310001 3813163
-0.59400004 0.60000002 1.9340001 1709078
-0.52600002 0.60400003 1.932 7754308
-0.51700002 0.60300004 1.9310001 7951174
-0.509 0.60300004 1.9330001 8017220
-0.50100005 0.60300004 1.9330001 8477513
-0.294 0.60200006 1.9310001 9923925
-0.57600003 0.60600001 1.9300001 7361606
-0.44200003 0.60800004 1.9310001 8806986
-0.43400002 0.60800004 1.9330001 9069389
-0.37600002 0.61300004 1.9300001 9396815
-0.36800003 0.61300004 1.9300001 9265229
-0.36000001 0.61300004 1.932 9133386
-0.35200003 0.61400002 1.9340001 9001798
-0.303 0.611 1.932 6704193
-0.27800003 0.61000001 1.9310001 9791822
-0.27100003 0.61900002 1.9330001 9593418
-0.24600001 0.62600005 1.9310001 9398090
-0.23800001 0.62600005 1.9310001 2365213
-0.23100001 0.62700003 1.9330001 2036762
-0.223 0.62600005 1.9330001 2036499
-0.21400002 0.62600005 1.932 1774103
-0.15000001 0.63300002 1.9310001 8803128
-0.14300001 0.634 1.9340001 9395265
-0.13500001 0.634 1.9340001 9197886
-0.11100001 0.63300002 1.9340001 9070680
0.514 0.69000006 1.9300001 3879728
0.52400005 0.69100004 1.9330001 3879729
0.53200001 0.69100004 1.9310001 4076851
0.54000002 0.69200003 1.932 4142387
0.54900002 0.69300002 1.932 4142387
0.55700004 0.69300002 1.9310001 4076848
0.56600004 0.69300002 1.9310001 4142641
0.57500005 0.69400001 1.9310001 3879982
0.58400005 0.69500005 1.932 4011055
0.59200001 0.69500005 1.9310001 4011055
0.60100001 0.69600004 1.9310001 3945260
0.61000001 0.69700003 1.932 3945260
0.61900002 0.69800001 1.9340001 4010796
0.62800002 0.69900006 1.9340001 4010794
0.63700002 0.69900006 1.9340001 4207919
0.64600003 0.70000005 1.9340001 4207662
0.65500003 0.70100003 1.9340001 4273198
0.66400003 0.70100003 1.9340001 4141610
0.67300004 0.70200002 1.9340001 4273196
0.74500006 0.708 1.9340001 4536106
0.75400001 0.70900005 1.9340001 4601899
0.85800004 0.71800005 1.9340001 4929578
0.86700004 0.71900004 1.9330001 4863785
0.88600004 0.72000003 1.9330001 4863785
0.92500007 0.72400004 1.932 4732456
0.93500006 0.72500002 1.9330001 4864042
0.94400007 0.72500002 1.9300001 4798759
1.3620001 -0.61200005 1.9380001 13290948
1.3710001 -0.59300005 1.937 12962753
1.381 -0.58500004 1.9360001 13619662
1.3710001 -0.58400005 1.9390001 12896958
1.3800001 -0.57500005 1.9360001 13685453
1.3790001 -0.56600004 1.937 14014424
1.391 -0.56700003 1.9360001 3420987
1.3790001 -0.55700004 1.9380001 12500671
1.3890001 -0.55700004 1.9360001 2368557
1.3890001 -0.54800004 1.937 2106156
-1.261 -0.27500001 1.9390001 5727869
-1.248 -0.26500002 1.9380001 1250848
-1.1470001 -0.22600001 1.9350001 4604746
-1.148 -0.21800001 1.937 4539208
-1.1880001 -0.17500001 1.9350001 4144961
-1.197 -0.089000002 1.9360001 4408909
-1.197 -0.081 1.937 4540495
0.79500002 -0.052000001 1.9360001 7173003
0.97300005 -0.036000002 1.937 5923190
1.2520001 -0.038000003 1.937 5066839
1.263 -0.038000003 1.937 7633283
1.274 -0.038000003 1.937 7896456
1.2420001 -0.029000001 1.9380001 6185831
1.251 -0.029000001 1.9350001 6777970
1.2620001 -0.029000001 1.9350001 2962492
1.286 -0.030000001 1.9380001 7041916
1.2310001 -0.021000002 1.9390001 2698289
1.2410001 -0.021000002 1.937 1842982
1.284 -0.021000002 1.9350001 2698806
1.2980001 -0.021000002 1.9390001 2435378
1.1960001 -0.012 1.9350001 2698289
1.24 -0.012 1.9350001 2303533
-1.2060001 0.0050000004 1.9350001 4474188
-1.2080001 0.014 1.9380001 4473932
-1.2060001 0.066 1.9350001 4079171
-1.1980001 0.074000001 1.9390001 4079167
0.86800003 0.079000004 1.9360001 1973531
0.91600007 0.079000004 1.9380001 1710363
-1.1880001 0.083000004 1.9390001 4341309
0.89700001 0.087000005 1.9360001 2631722
-1.176 0.091000006 1.9380001 4144698
1.2210001 0.109 1.9390001 2434341
1.2320001 0.109 1.9380001 2368548
1.2080001 0.11700001 1.9350001 3223855
-1.125 0.125 1.9390001 4275260
-0.87100005 0.21100001 1.9380001 4798512
-0.87500006 0.303 1.9390001 4601134
-0.88600004 0.36100003 1.9360001 13612973
-0.89300007 0.46500003 1.937 3812644
-0.89500004 0.49900001 1.9350001 3351583
-0.89800006 0.51700002 1.9380001 3154717
-0.89900005 0.53500003 1.9380001 3417374
-0.89800006 0.54300004 1.9350001 3483682
-0.89100003 0.56 1.9360001 4141353
-0.79000002 0.57900006 1.937 5325108
-0.75300002 0.58500004 1.9360001 5719865
-0.74500006 0.58500004 1.9380001 5720124
-0.69000006 0.58900005 1.9350001 1906198
-0.68100005 0.588 1.9350001 1709587
-0.67300004 0.588 1.9360001 1774612
-0.66400003 0.588 1.9360001 3154465
-0.49300003 0.60400003 1.9360001 8477768
-0.48500001 0.60300004 1.937 8148547
-0.53600001 0.60700005 1.9390001 7689283
-0.42600003 0.60900003 1.9350001 8938059
-0.41800001 0.60900003 1.9360001 9397840
-0.41000003 0.60900003 1.937 9331790
-0.095000006 0.60800004 1.937 10060664
-0.34400001 0.61400002 1.9360001 9528401
-0.33600003 0.61400002 1.9380001 5389101
-0.32800001 0.61400002 1.9390001 2168854
-0.32000002 0.61400002 1.9390001 1841177
-0.31200001 0.61400002 1.9380001 1839894
-0.26300001 0.62100005 1.9390001 9527627
-0.127 0.634 1.9360001 9001279
-0.119 0.634 1.9350001 8408627
0.49900001 0.68300003 1.9380001 3813939
0.68200004 0.70300001 1.9350001 4272938
0.69100004 0.70400006 1.9350001 4601903
0.70000005 0.70500004 1.9360001 4536110
0.70900005 0.70600003 1.9360001 4404265
0.71900004 0.70700002 1.9380001 4470058
0.72800004 0.70700002 1.937 4470313
0.73700005 0.708 1.9360001 4535337
0.76400006 0.71000004 1.9350001 4667176
0.77300006 0.71100003 1.9350001 4667176
0.78300005 0.71100003 1.9350001 4798249
0.79300004 0.71300006 1.9380001 4732456
0.80200005 0.71400005 1.937 4798249
0.83100003 0.71700001 1.9390001 4732455
0.84000003 0.71700001 1.9360001 4601125
0.84900004 0.71800005 1.9360001 4864041
0.87800002 0.72100002 1.9360001 4797992
0.89700001 0.72300005 1.9360001 5061164
0.90700006 0.72300005 1.9350001 4929835
0.91600007 0.72400004 1.9350001 4600870
1.348 -0.65000004 1.9440001 12831938
1.3540001 -0.63000005 1.9400001 13423302
1.3540001 -0.62100005 1.9420002 13423304
1.3540001 -0.61200005 1.9430001 13554118
1.363 -0.60300004 1.9410001 13225157
1.3620001 -0.59400004 1.9420002 13225156
1.363 -0.58500004 1.9440001 12962500
1.3710001 -0.57500005 1.9410001 13027776
1.3710001 -0.56600004 1.9420002 12961985
1.3700001 -0.55700004 1.9430001 12962241
1.3790001 -0.54800004 1.9400001 9869213
1.404 -0.55000001 1.9410001 4606539
1.3790001 -0.53900003 1.9420002 6316139
1.3900001 -0.53900003 1.9400001 2303534
1.3720001 -0.46400002 1.9440001 1776673
-1.378 -0.29000002 1.9410001 3555421
-1.368 -0.29000002 1.9440001 3687525
-1.24 -0.257 1.9430001 3486780
-1.174 -0.23600002 1.9430001 10658985
-1.1620001 -0.23600002 1.9410001 7697789
-1.1520001 -0.21000001 1.9440001 3880506
-1.1900001 -0.16700001 1.9400001 4210754
-1.192 -0.15900001 1.9430001 4473413
-1.199 -0.072000004 1.9400001 4605518
-1.199 -0.064000003 1.9410001 4539725
-1.2 -0.055000003 1.9420002 4408911
0.76200002 -0.060000002 1.9430001 6975883
0.93700004 -0.053000003 1.9430001 6251895
1.245 -0.047000002 1.9430001 8355972
1.2550001 -0.047000002 1.9410001 7829632
1.2650001 -0.047000002 1.9400001 7304830
1.279 -0.047000002 1.9440001 7239037
1.034 -0.037 1.9410001 5067875
1.2340001 -0.038000003 1.9440001 10659495
1.243 -0.038000003 1.9400001 10922669
1.289 -0.038000003 1.9430001 7765127
1.2320001 -0.029000001 1.9410001 5133143
1.2210001 -0.021000002 1.9410001 2500910
-1.21 0.023000002 1.9420002 4408139
-1.212 0.031000001 1.9440001 4277325
-1.2110001 0.040000003 1.9430001 4277325
-1.212 0.049000002 1.9440001 4276810
-1.21 0.057000004 1.9410001 4079171
0.88000005 0.079000004 1.9410001 2039070
0.89000005 0.079000004 1.9430001 2104348
0.90800005 0.079000004 1.9410001 1907227
-1.1470001 0.108 1.9420002 4209722
1.2440001 0.11000001 1.9400001 2302754
-1.136 0.116 1.9410001 4209721
1.2010001 0.11800001 1.9400001 3618613
1.2800001 0.119 1.9430001 2500134
1.3590001 0.12100001 1.9420002 2368548
-0.87100005 0.17 1.9400001 4798769
-0.87400001 0.22000001 1.9440001 4799027
-0.87500006 0.25300002 1.9430001 4864306
-0.87700003 0.29500002 1.9430001 4667184
-0.87700003 0.31100002 1.9410001 4535340
-0.87900007 0.32900003 1.9440001 5060913
-0.89400005 0.55300003 1.9440001 4009766
-0.87500006 0.56900001 1.9430001 3483679
-0.82000005 0.574 1.9440001 4142127
-0.81000006 0.574 1.9440001 4996148
-0.86600006 0.57700002 1.9410001 1840664
-0.82900006 0.57500005 1.9430001 2563868
-0.78200006 0.58000004 1.9410001 5588280
-0.77400005 0.58000004 1.9430001 5719866
-0.72000003 0.58400005 1.9430001 6312778
-0.85700005 0.58500004 1.9410001 1840664
-0.84800005 0.58500004 1.9430001 1972250
-0.73700005 0.58500004 1.9400001 6048834
-0.72900003 0.58500004 1.9430001 6312521
-0.62300003 0.59600002 1.9430001 1708567
-0.47700003 0.60400003 1.9400001 8345924
-0.46900001 0.60400003 1.9410001 8674889
-0.46100003 0.60400003 1.9420002 8872268
-0.45300001 0.60400003 1.9440001 8872524
-0.095000006 0.60200006 1.9440001 10126457
-0.40200001 0.60900003 1.9400001 9528400
-0.39400002 0.60900003 1.9410001 9199948
-0.37800002 0.60900003 1.9430001 9265227
-0.38600001 0.61000001 1.9440001 9396813
-0.25600001 0.62200004 1.9440001 9659725
-0.20700002 0.62100005 1.9430001 3220773
-0.10300001 0.62700003 1.9410001 9994614
0.509 0.68500006 1.9430001 4011572
0.81300002 0.71600002 1.9410001 4732711
0.82200003 0.71700001 1.9400001 4732968
0.94900006 0.72100002 1.9430001 4864297
0.95900005 0.72200006 1.9440001 4995883
1.342 -0.67000002 1.9490001 10792873
1.3390001 -0.65000004 1.9480001 10990250
1.337 -0.64000005 1.9480001 11253165
1.3470001 -0.64000005 1.9450001 13225928
1.3470001 -0.63100004 1.9460001 13291977
1.3460001 -0.62200004 1.9470001 13160391
1.345 -0.61200005 1.9480001 13291718
1.355 -0.60300004 1.9460001 13488584
1.3540001 -0.59400004 1.9470001 13422789
1.363 -0.57600003 1.9460001 12962242
1.363 -0.56700003 1.9480001 12831165
1.3620001 -0.55700004 1.9490001 12896960
1.3700001 -0.54800004 1.9450001 12896447
1.4080001 -0.54300004 1.9490001 4343880
1.3710001 -0.53900003 1.9470001 12765373
1.3710001 -0.53000003 1.9490001 12831167
1.3800001 -0.53000003 1.9450001 5724001
1.393 -0.53100002 1.9460001 2106407
1.3820001 -0.52100003 1.9490001 5526874
1.378 -0.48400003 1.9490001 1842717
1.3640001 -0.47300002 1.9480001 4079681
1.3740001 -0.47300002 1.9450001 3421493
1.3870001 -0.46600002 1.9480001 1842205
1.363 -0.46400002 1.9480001 4013630
1.386 -0.45600003 1.9480001 1710618
1.3720001 -0.45500001 1.9460001 2697518
1.3620001 -0.44500002 1.9490001 3881788
1.373 -0.44600001 1.9480001 3026228
1.3850001 -0.44700003 1.9480001 1447705
-1.3240001 -0.28800002 1.9480001 4476268
-1.256 -0.27600002 1.9490001 5265003
-1.2190001 -0.24700001 1.9450001 6909043
-1.1440001 -0.22700001 1.9480001 4538952
-1.1930001 -0.15000001 1.9450001 4473929
-1.1950001 -0.142 1.9480001 4605515
-1.194 -0.133 1.9480001 4540493
-1.1950001 -0.125 1.9490001 4737104
-1.194 -0.116 1.9490001 4737106
0.77300006 -0.060000002 1.9470001 6975626
0.78100002 -0.060000002 1.9450001 6910090
1.2600001 -0.056000002 1.9490001 2697774
-1.202 -0.047000002 1.9460001 4408910
1.2370001 -0.047000002 1.9480001 11514289
0.96700007 -0.045000002 1.9450001 6054774
-1.202 -0.038000003 1.9450001 4408911
1.057 -0.037 1.9460001 2303541
-1.2030001 -0.029000001 1.9470001 4474704
1.2240001 -0.029000001 1.9450001 4803918
1.304 -0.030000001 1.9480001 7370626
-1.2040001 -0.021000002 1.9490001 4539725
1.2140001 -0.021000002 1.9470001 1645602
1.3160001 -0.012 1.9490001 2698547
-1.2040001 0.066 1.9480001 4079171
0.90100002 0.079000004 1.9450001 2038555
-1.171 0.091000006 1.9470001 4275514
-1.1600001 0.1 1.9450001 4406843
1.11 0.108 1.9480001 2369061
1.2160001 0.109 1.9470001 2434341
-0.88200003 0.12900001 1.9460001 4272683
-0.87400001 0.13700001 1.9490001 4337961
-0.87400001 0.14500001 1.9490001 4075559
-0.87400001 0.162 1.9480001 4666926
-0.87400001 0.18700001 1.9460001 4798770
-0.87600005 0.20400001 1.9490001 4864305
-0.87500006 0.22800002 1.9450001 4864305
-0.87600005 0.23700002 1.9460001 4798513
-0.87700003 0.26200002 1.9480001 4864306
-0.87800002 0.27900001 1.9470001 4732720
-0.87900007 0.287 1.9480001 4601648
-0.88600004 0.56200004 1.9460001 4338731
-0.80200005 0.574 1.9470001 5193270
-0.85800004 0.57800001 1.9460001 1906457
-0.76600003 0.58000004 1.9480001 5917245
-0.71200001 0.58500004 1.9460001 6378571
-0.70300001 0.58500004 1.9480001 4142126
-0.61500001 0.59600002 1.9460001 1577494
-0.51200002 0.59900004 1.9480001 8148804
-0.50400001 0.59900004 1.9480001 8411719
-0.296 0.59800005 1.9460001 9462605
-0.52100003 0.60000002 1.9470001 7820098
-0.44500002 0.60400003 1.9460001 8806473
-0.43700001 0.60400003 1.9470001 9003852
-0.42800003 0.60400003 1.9480001 9069132
-0.37 0.60900003 1.9450001 9462093
-0.36200002 0.60900003 1.9450001 8937030
-0.354 0.60900003 1.9470001 9265229
-0.30500001 0.60800004 1.9470001 8217432
-0.28100002 0.60700005 1.9490001 9396551
-0.27200001 0.61500001 1.9460001 9462344
-0.24800001 0.62200004 1.9450001 8608829
-0.24000001 0.62300003 1.9480001 2233112
-0.23200001 0.62300003 1.9480001 2233113
-0.22400001 0.62200004 1.9470001 2036755
-0.21600001 0.62200004 1.9450001 2102294
-0.11100001 0.62900001 1.9470001 10255728
-0.16000001 0.63000005 1.9480001 9395011
-0.14400001 0.63000005 1.9490001 9263679
0.51800001 0.68600005 1.9460001 4011315
0.52700001 0.68800002 1.9480001 4274486
0.53500003 0.68800002 1.9470001 4208180
0.54400003 0.68800002 1.9470001 4142387
0.55200005 0.68900001 1.9460001 4076594
0.56100005 0.68900001 1.9460001 4142641
0.57000005 0.69000006 1.9460001 4076848
0.57900006 0.69100004 1.9470001 4208180
0.58700001 0.69100004 1.9460001 4274227
0.59600002 0.69100004 1.9460001 4208434
0.60500002 0.69200003 1.9470001 4273714
0.61400002 0.69300002 1.9470001 4273714
0.62300003 0.69400001 1.9470001 4273714
0.63200003 0.69500005 1.9490001 4404787
0.64100003 0.69500005 1.9480001 4404787
0.65000004 0.69600004 1.9490001 4207665
0.65900004 0.69700003 1.9490001 4207405
0.71300006 0.70100003 1.9490001 4732719
0.75000006 0.70400006 1.9480001 4798764
0.75900006 0.70500004 1.9490001 4930093
0.76900005 0.70600003 1.9490001 4601130
0.77800006 0.70700002 1.9490001 4995630
0.78700006 0.70700002 1.9490001 4995371
0.85300004 0.71300006 1.9480001 4995368
0.86300004 0.71400005 1.9470001 4666405
0.87300003 0.71500003 1.9490001 4863784
0.88200003 0.71600002 1.9480001 4995369
0.89200002 0.71700001 1.9480001 5061163
0.90200007 0.71800005 1.9490001 5126956
0.92200005 0.72000003 1.9480001 4666917
0.93100005 0.72000003 1.9470001 4798504
0.94000006 0.72100002 1.9460001 4864297
1.3230001 -0.69700003 1.95 13490130
1.3110001 -0.68600005 1.9520001 7570330
1.325 -0.68800002 1.9540001 13358541
1.332 -0.67800003 1.95 9147540
1.3310001 -0.66900003 1.95 9213582
1.342 -0.66100001 1.9510001 10858666
1.332 -0.66000003 1.9530001 9279636
1.33 -0.65000004 1.9520001 9410968
1.33 -0.64100003 1.9540001 9608858
1.3180001 -0.63900006 1.9540001 10397606
1.337 -0.63100004 1.95 11187372
1.337 -0.62200004 1.9520001 11516337
1.3380001 -0.61300004 1.9540001 11844275
1.3460001 -0.60300004 1.9510001 13423304
1.3460001 -0.59400004 1.9520001 13357511
1.355 -0.58500004 1.95 13554120
1.355 -0.57600003 1.9520001 13489097
1.355 -0.56700003 1.9530001 13291718
1.363 -0.54800004 1.9510001 12699580
1.363 -0.53900003 1.9530001 12633788
1.411 -0.53500003 1.9540001 4409160
1.363 -0.53000003 1.9540001 12633277
1.3720001 -0.52100003 1.9520001 13356488
1.3720001 -0.51200002 1.9540001 6316639
1.3820001 -0.51200002 1.9510001 5263448
1.3820001 -0.50300002 1.9520001 2828846
1.368 -0.48400003 1.9530001 2829614
1.3890001 -0.47500002 1.95 2237217
1.3640001 -0.45500001 1.9510001 3881788
1.3640001 -0.43700001 1.9530001 3815743
1.376 -0.43800002 1.9530001 1645086
1.363 -0.42700002 1.9530001 3487291
1.3750001 -0.42800003 1.9530001 4342600
-1.304 -0.287 1.9520001 5002865
-1.2460001 -0.26700002 1.9520001 922138
-1.2110001 -0.24700001 1.95 7632765
-1.1470001 -0.21900001 1.9530001 4077885
-1.187 -0.185 1.9510001 4078655
-1.197 -0.10700001 1.9530001 4671313
-1.197 -0.099000007 1.9530001 4671566
0.80100006 -0.060000002 1.9510001 6910090
1.2490001 -0.056000002 1.95 10658727
1.2720001 -0.056000002 1.95 8553098
1.2290001 -0.047000002 1.9530001 11909302
1.296 -0.047000002 1.9520001 2962237
0.98100007 -0.045000002 1.9540001 6120310
0.99000007 -0.045000002 1.9520001 6054514
1.228 -0.038000003 1.9510001 12896453
1.217 -0.029000001 1.9510001 3619646
1.2080001 -0.021000002 1.9540001 1974566
-1.2060001 -0.012 1.9520001 4539725
-1.207 -0.003 1.9540001 4474187
-1.1950001 0.075000003 1.9520001 4210239
-1.184 0.083000004 1.95 4209980
1.2190001 0.101 1.9530001 1841948
1.1210001 0.108 1.95 2500647
-1.133 0.11700001 1.9530001 4275512
-0.88500005 0.12100001 1.9530001 4404272
1.3440001 0.12100001 1.9540001 2500134
1.3540001 0.12100001 1.9510001 2500134
-1.123 0.125 1.9530001 4078650
-0.87700003 0.15400001 1.9540001 4140582
-0.87600005 0.17900001 1.9520001 4930099
-0.87600005 0.19500001 1.95 4864305
-0.87800002 0.245 1.95 4864306
-0.87900007 0.27100003 1.95 4667441
-0.88200003 0.32100001 1.9520001 4601391
-0.88200003 0.33800003 1.95 13481640
-0.88400006 0.347 1.9540001 16309708
-0.88500005 0.38100001 1.9510001 15586996
-0.88500005 0.38900003 1.9510001 15323824
-0.88700002 0.39900002 1.9540001 14732457
-0.88700002 0.40700001 1.9540001 14994350
-0.88800007 0.42400002 1.9530001 10257528
-0.86900002 0.57100004 1.9510001 1709076
-0.79500002 0.574 1.9510001 5390645
-0.85200006 0.57900006 1.9540001 1972250
-0.84200007 0.57800001 1.9520001 1775642
-0.75800002 0.58000004 1.95 5851452
-0.75000006 0.58100003 1.9530001 5851452
-0.69500005 0.58500004 1.9510001 2037524
-0.68700004 0.58500004 1.9530001 1643794
-0.60800004 0.597 1.9510001 1643287
-0.48800004 0.59900004 1.9510001 8543305
-0.49600002 0.60000002 1.9510001 9464662
-0.42100003 0.60400003 1.95 9266768
-0.41300002 0.60500002 1.9530001 9397840
-0.40500003 0.60500002 1.9540001 9463635
-0.31400001 0.60900003 1.9520001 1971478
-0.34600002 0.61000001 1.95 9396813
-0.33800003 0.61000001 1.9510001 4204057
-0.33000001 0.61000001 1.9530001 2299926
-0.32200003 0.61000001 1.9540001 1906715
-0.26500002 0.61700004 1.9540001 9593158
-0.15200001 0.63000005 1.95 8803128
-0.13600001 0.63000005 1.95 9197114
-0.12800001 0.63000005 1.95 8868921
-0.12 0.63000005 1.95 8870469
0.50200003 0.67900002 1.9530001 3945781
0.66900003 0.69800001 1.95 4535599
0.67800003 0.69900006 1.95 4601648
0.68700004 0.69900006 1.95 4667696
0.69600004 0.70000005 1.95 4667696
0.70500004 0.70100003 1.95 4732719
0.72300005 0.70200002 1.95 4798512
0.73200005 0.70300001 1.95 4733485
0.74100006 0.70400006 1.95 4601899
0.79800004 0.70900005 1.9520001 4929324
0.80700004 0.70900005 1.95 4732199
0.81700003 0.71100003 1.9510001 4863784
0.82600003 0.71200001 1.9520001 4798248
0.83600003 0.71300006 1.9520001 4732453
0.84500003 0.71300006 1.95 4929576
0.91300005 0.71900004 1.95 4797989
1.314 -0.67800003 1.9580001 7240854
1.3240001 -0.67900002 1.955 14015454
1.3110001 -0.66800004 1.9560001 7372433
1.322 -0.66900003 1.955 13818843
1.3240001 -0.66100001 1.9590001 13489875
1.3110001 -0.64900005 1.9590001 8490892
1.3200001 -0.64900005 1.955 11779517
1.309 -0.63900006 1.9580001 9411991
1.317 -0.63000005 1.955 8687499
1.33 -0.63200003 1.9560001 9806237
1.317 -0.62100005 1.9560001 8752779
1.3280001 -0.62200004 1.955 9871519
1.3280001 -0.61300004 1.9580001 10068641
1.3380001 -0.60400003 1.9570001 12107957
1.3380001 -0.59500003 1.9580001 12239543
1.3460001 -0.58500004 1.955 13291718
1.3470001 -0.57600003 1.9570001 13225925
1.3470001 -0.56700003 1.9590001 13225925
1.355 -0.55800003 1.955 13225925
1.355 -0.54900002 1.9570001 13027778
1.355 -0.54000002 1.9580001 13027776
1.4250001 -0.537 1.9570001 4212293
1.3640001 -0.52100003 1.9570001 12764606
1.3980001 -0.52400005 1.955 1909028
1.3980001 -0.51500005 1.9560001 2171430
1.3640001 -0.51200002 1.9590001 3026989
1.399 -0.50600004 1.9590001 2303784
1.3720001 -0.50300002 1.955 3421749
1.383 -0.49500003 1.955 3421749
1.3710001 -0.49300003 1.955 3685432
1.3950001 -0.48700002 1.9570001 1776920
1.358 -0.47400004 1.9570001 5922906
1.3560001 -0.46400002 1.955 8226686
1.3570001 -0.45600003 1.9580001 9081479
1.3570001 -0.44600001 1.9590001 10133908
1.391 -0.44000003 1.9580001 1579550
1.3560001 -0.43700001 1.9590001 10528411
1.355 -0.42800003 1.9590001 11318184
1.365 -0.41900003 1.9570001 2631982
1.378 -0.42000002 1.9590001 1448477
-1.238 -0.25800002 1.9570001 3816774
-1.2040001 -0.24800001 1.9570001 8224902
-1.1600001 -0.23700002 1.9560001 4736845
-1.171 -0.20300001 1.9590001 4275262
-1.189 -0.177 1.955 4144961
-1.1910001 -0.16900001 1.9590001 4342340
-1.1980001 -0.090000004 1.955 4408910
-1.197 -0.081 1.955 4474702
-1.199 -0.073000006 1.9580001 4605520
0.79400003 -0.060000002 1.955 6910090
1.243 -0.056000002 1.9570001 11382448
1.2870001 -0.056000002 1.9560001 5593181
0.95300007 -0.053000003 1.9560001 6120566
1.003 -0.045000002 1.9580001 5330789
1.0730001 -0.037 1.9580001 2829882
1.2210001 -0.038000003 1.9570001 12238525
1.2110001 -0.029000001 1.9590001 3158839
1.2 -0.021000002 1.9590001 1381915
1.322 -0.021000002 1.9580001 2764343
-1.2080001 0.0050000004 1.955 4474443
-1.2090001 0.014 1.9580001 4473932
-1.21 0.023000002 1.9590001 4408139
-1.2080001 0.058000002 1.955 4013375
-1.1670001 0.092000008 1.9580001 4275257
-1.1550001 0.1 1.9560001 4275514
-1.1440001 0.109 1.955 4143929
1.21 0.11000001 1.955 2500134
1.199 0.11800001 1.955 2960426
-0.87700003 0.12900001 1.955 4206892
-1.103 0.134 1.955 4143417
-0.88700002 0.35700002 1.9590001 16375748
-0.88700002 0.36500001 1.9590001 16309952
-0.88700002 0.37400001 1.9580001 15915705
-0.88800007 0.41600001 1.955 15388602
-0.89000005 0.43300003 1.955 4798509
-0.89100003 0.44200003 1.9560001 4338476
-0.89100003 0.45100003 1.955 4075817
-0.89200002 0.46000001 1.9560001 4075816
-0.89400005 0.47800002 1.9590001 3220509
-0.89400005 0.49500003 1.9560001 3548962
-0.89800006 0.54800004 1.955 3680546
-0.88900006 0.55600005 1.955 4535340
-0.88000005 0.56400001 1.955 4076074
-0.82500005 0.57000005 1.9590001 3221798
-0.78700006 0.57500005 1.955 5587765
-0.77900004 0.57500005 1.9580001 5654073
-0.74200004 0.58100003 1.955 5983038
-0.73400003 0.58100003 1.9580001 5983554
-0.67900002 0.58500004 1.9560001 1905685
-0.60100001 0.59800005 1.9560001 1709337
-0.53100002 0.60300004 1.955 7820099
-0.48000002 0.60000002 1.955 8280133
-0.47200003 0.60000002 1.9560001 8608583
-0.46400002 0.60000002 1.9570001 8806220
-0.45600003 0.60000002 1.9590001 8871498
-0.39700001 0.60500002 1.9560001 9266255
-0.38900003 0.60500002 1.9580001 9266254
-0.37200001 0.60500002 1.9590001 9266254
-0.25800002 0.61800003 1.9580001 9397835
-0.104 0.61500001 1.9570001 9994869
-0.104 0.62300003 1.9560001 10125944
0.51200002 0.68100005 1.9570001 4077365
0.59900004 0.68700004 1.9590001 4405298
0.96500003 0.71800005 1.9580001 5061672
0.97500002 0.71900004 1.9580001 5193259
1.3130001 -0.66000003 1.9610001 8227980
1.299 -0.63900006 1.9610001 8754832
1.3100001 -0.63100004 1.9620001 11121328
1.3080001 -0.62100005 1.96 13225933
1.319 -0.61300004 1.9610001 8817805
1.3180001 -0.60300004 1.9620001 8949390
1.3290001 -0.60400003 1.9610001 10200225
1.3290001 -0.59500003 1.9630001 10397602
1.3390001 -0.58600003 1.9610001 12503229
1.34 -0.57700002 1.9640001 12634304
1.3460001 -0.55800003 1.96 13225925
1.3470001 -0.54900002 1.9620001 13225155
1.3460001 -0.54000002 1.9630001 13093567
1.355 -0.53100002 1.96 12830398
1.355 -0.52200001 1.9620001 12633534
1.355 -0.51300001 1.9640001 3290931
1.363 -0.50300002 1.96 3685177
1.401 -0.49800003 1.9630001 1712160
1.363 -0.49400002 1.9610001 1513239
1.3620001 -0.48500001 1.9610001 4013884
1.3510001 -0.47500002 1.9640001 1579801
1.35 -0.46500003 1.9640001 3554103
1.348 -0.43700001 1.9640001 5792345
1.3920001 -0.43100002 1.96 1580063
1.3570001 -0.41900003 1.9630001 11645871
1.3660001 -0.41000003 1.96 2039331
1.381 -0.41200003 1.9640001 2830130
-1.4180001 -0.31300002 1.9610001 1513252
-1.3700001 -0.29200003 1.9630001 3818853
-1.3560001 -0.29100001 1.9610001 4016231
-1.3210001 -0.289 1.9610001 4739953
-1.253 -0.27700001 1.9620001 2040368
-1.1960001 -0.24800001 1.9620001 8882831
-1.184 -0.19500001 1.9630001 4341311
-1.1930001 -0.16000001 1.9620001 4473673
-1.194 -0.15200001 1.9640001 4539722
0.79600006 -0.069000006 1.9610001 6910342
-1.2010001 -0.064000003 1.9610001 4605520
-1.2010001 -0.056000002 1.9620001 4605520
1.2360001 -0.056000002 1.9640001 3750463
-1.2010001 -0.047000002 1.9620001 4671313
1.026 -0.046000004 1.9640001 5264479
1.0350001 -0.046000004 1.9610001 5396065
1.225 -0.047000002 1.9640001 12304061
1.0140001 -0.045000002 1.96 4738135
1.3130001 -0.039000001 1.9610001 7501955
-1.2110001 0.032000002 1.9610001 4343116
-1.2110001 0.040000003 1.9610001 4211788
-1.2110001 0.049000002 1.96 4145221
-1.202 0.066 1.9630001 4013375
-1.1910001 0.075000003 1.9630001 4144700
-1.1800001 0.083000004 1.9620001 4209721
1.2140001 0.101 1.9620001 1973534
1.2040001 0.11000001 1.9630001 2500134
1.3380001 0.12100001 1.9620001 2434341
-1.118 0.126 1.9640001 4143928
-0.89600003 0.47000003 1.9640001 3549473
-0.89700001 0.48800004 1.9640001 3351581
-0.89800006 0.505 1.9630001 3219997
-0.90000004 0.54000002 1.9610001 3615265
-0.87400001 0.56600004 1.9630001 1905939
-0.86400002 0.57300001 1.96 1774873
-0.83600003 0.57100004 1.9620001 2103838
-0.81700003 0.57000005 1.9620001 4865075
-0.80800003 0.57000005 1.9630001 5062454
-0.77100003 0.57500005 1.9610001 5785659
-0.72600001 0.58100003 1.9610001 6115398
-0.71800005 0.58100003 1.9640001 6312519
-0.51600003 0.59600002 1.9640001 8148806
-0.50700003 0.59500003 1.9630001 8214597
-0.44800001 0.60000002 1.9610001 8806475
-0.44000003 0.60000002 1.9620001 9134668
-0.43100002 0.60000002 1.9630001 9134668
-0.42300001 0.60000002 1.9630001 9332047
-0.30700001 0.60300004 1.9610001 9663075
-0.28200001 0.60300004 1.9630001 9330761
-0.38100001 0.60600001 1.96 9265997
-0.36400002 0.60500002 1.9610001 8805444
-0.35700002 0.60600001 1.9630001 9133643
-0.34800002 0.60600001 1.9640001 9396813
-0.27400002 0.611 1.9620001 9593671
-0.25 0.61900002 1.96 6373421
-0.24200001 0.61900002 1.9620001 2364950
-0.23400001 0.61900002 1.9630001 2101524
-0.22600001 0.61900002 1.9640001 2102042
-0.21700001 0.61800003 1.9620001 2167570
-0.112 0.62400001 1.96 10124654
-0.12 0.62600005 1.9640001 8410688
0.52100003 0.68200004 1.96 4274487
0.53000003 0.68400002 1.9620001 4274486
0.53900003 0.68400002 1.9610001 4339766
0.54800004 0.68500006 1.9620001 4077107
0.55600005 0.68500006 1.96 4142644
0.565 0.68500006 1.96 4208434
0.574 0.68600005 1.9620001 4208690
