# .PCD v0.7 - Point Cloud Data file format
VERSION 0.7
FIELDS x y z rgb
SIZE 4 4 4 4
TYPE F F F U
COUNT 1 1 1 1
WIDTH 1175
HEIGHT 1
VIEWPOINT 0 0 0 1 0 0 0
POINTS 1175
DATA ascii
-0.091000006 0.22000001 0.625 11646398
-0.088000007 0.22000001 0.625 11646142
-0.086000003 0.22000001 0.62600005 11646143
-0.083000004 0.22000001 0.62700003 11645887
-0.081 0.22100002 0.62800002 11514814
-0.078000002 0.22100002 0.62900001 11580607
-0.076000005 0.22100002 0.63100004 11449791
-0.073000006 0.22100002 0.63100004 11646141
-0.071000002 0.22200002 0.63200003 11646141
-0.068000004 0.22200002 0.63300002 11645887
-0.065000005 0.22200002 0.63300002 11645887
-0.063000001 0.22200002 0.634 11645887
-0.060000002 0.22200002 0.634 11580094
-0.058000002 0.22200002 0.63500005 11580094
-0.055000003 0.22200002 0.63500005 11645887
-0.052000001 0.223 0.63600004 11580094
-0.050000001 0.223 0.63600004 11514301
-0.047000002 0.223 0.63700002 11514300
-0.045000002 0.223 0.63800001 11514556
-0.042000003 0.223 0.63800001 11580094
-0.039000001 0.223 0.63900006 11514301
-0.037 0.223 0.63900006 11580348
-0.034000002 0.22400001 0.64000005 11514555
-0.032000002 0.22400001 0.64000005 11514555
-0.029000001 0.22400001 0.64100003 11448765
-0.026000001 0.22400001 0.64200002 11514814
-0.024 0.22500001 0.64300001 11580094
-0.021000002 0.22500001 0.64300001 11580093
-0.018000001 0.22500001 0.64400005 11580094
-0.016000001 0.22500001 0.64400005 11514301
-0.013 0.22500001 0.64400005 11514558
-0.010000001 0.22500001 0.64500004 11514557
-0.0080000004 0.22500001 0.64500004 11514301
-0.0050000004 0.22500001 0.64500004 11514555
-0.0020000001 0.22600001 0.64600003 11579836
0 0.22600001 0.64600003 11645373
0.003 0.22600001 0.64700001 11514301
0.0060000001 0.22600001 0.64700001 11448765
0.0080000004 0.22600001 0.648 11514301
0.011000001 0.22600001 0.648 11514301
0.014 0.22700001 0.64900005 11448508
0.016000001 0.22700001 0.64900005 11514301
0.019000001 0.22700001 0.65000004 11449021
0.022000002 0.22700001 0.65100002 11449021
0.024 0.22700001 0.65100002 11514301
0.027000001 0.22700001 0.65100002 11448508
0.030000001 0.22800002 0.65200001 11448508
0.033 0.22800002 0.65300006 11448508
0.035 0.22800002 0.65300006 11514301
0.038000003 0.22800002 0.65300006 11514301
0.041000001 0.22800002 0.65300006 11383227
0.043000001 0.22800002 0.65300006 11449019
0.046000004 0.22800002 0.65300006 11448762
0.049000002 0.22900002 0.65400004 11448762
0.052000001 0.22900002 0.65400004 11514043
0.054000001 0.22900002 0.65400004 11382715
0.057000004 0.22900002 0.65400004 11382715
0.060000002 0.22900002 0.65400004 11382972
0.062000003 0.22900002 0.65400004 11317435
0.065000005 0.22900002 0.65500003 11251642
0.068000004 0.23 0.65500003 11316922
0.071000002 0.23 0.65600002 11513787
0.074000001 0.23 0.65600002 11579579
0.076000005 0.23 0.65700001 11448250
0.079000004 0.23100001 0.65800005 11382714
0.082000002 0.23100001 0.65800005 11382715
0.085000001 0.23100001 0.65900004 11513785
0.088000007 0.23100001 0.65900004 11382969
0.091000006 0.23200001 0.66000003 11382969
0.093000002 0.23200001 0.66000003 11251640
0.096000001 0.23200001 0.66100001 11382715
0.099000007 0.23300001 0.66100001 11317178
0.10200001 0.23300001 0.66100001 11317176
0.105 0.23300001 0.66100001 11382969
0.108 0.23300001 0.66100001 11317433
0.11000001 0.23300001 0.66100001 11317433
0.11300001 0.23300001 0.66200006 11317433
0.116 0.23300001 0.66100001 11251640
0.119 0.23400001 0.66200006 11317175
0.12200001 0.23400001 0.66200006 11251381
0.125 0.23400001 0.66300005 11185847
0.12800001 0.23400001 0.66300005 11251640
0.13000001 0.23400001 0.66300005 11317176
0.134 0.23500001 0.66400003 11185847
0.13600001 0.23500001 0.66400003 11185847
0.13900001 0.23500001 0.66400003 11185847
0.142 0.23500001 0.66400003 11251383
0.14500001 0.23600002 0.66400003 11251639
0.148 0.23600002 0.66400003 11251382
0.15100001 0.23600002 0.66400003 11185588
0.15400001 0.23600002 0.66500002 11185590
0.156 0.23600002 0.66400003 11185590
0.15900001 0.23600002 0.66400003 11185590
0.162 0.23600002 0.66400003 11185589
0.16500001 0.23700002 0.66500002 11251381
0.16800001 0.23700002 0.66400003 11185590
0.171 0.23700002 0.66500002 11251383
0.17400001 0.23700002 0.66500002 11251383
0.177 0.23800001 0.66500002 11251383
0.18000001 0.23800001 0.66500002 11119797
0.18300001 0.23800001 0.66500002 11120054
0.186 0.23900001 0.66600001 11251381
0.18900001 0.23900001 0.66600001 11119796
0.192 0.23900001 0.66600001 11185590
0.19500001 0.23900001 0.66600001 11185590
0.19800001 0.23900001 0.66600001 11054004
0.20100001 0.24000001 0.66600001 11119797
0.20400001 0.24000001 0.66600001 11119797
0.208 0.24000001 0.66700006 10923445
0.21100001 0.24100001 0.66700006 10923445
0.21400002 0.24100001 0.66700006 11054774
0.21700001 0.24100001 0.66700006 11120054
0.22000001 0.24100001 0.66700006 11120567
0.223 0.24100001 0.66700006 10988982
0.22600001 0.24200001 0.66800004 10989237
0.22900002 0.24200001 0.66800004 10989236
0.23300001 0.24300002 0.66900003 10989237
0.23600002 0.24300002 0.66900003 10989238
0.23900001 0.24300002 0.66900003 10989238
0.24200001 0.24300002 0.66800004 10989238
0.245 0.24300002 0.66800004 10857652
0.24800001 0.24300002 0.66700006 10989238
0.25100002 0.24400002 0.66700006 10989238
0.25400001 0.24400002 0.66700006 10923445
0.257 0.24400002 0.66700006 10989238
0.26000002 0.24400002 0.66700006 10923445
0.264 0.245 0.66800004 10857650
0.26700002 0.245 0.66800004 10923445
0.27100003 0.24600001 0.66900003 10857911
0.273 0.24600001 0.66800004 10792372
0.27700001 0.24600001 0.66800004 10792373
0.27900001 0.24600001 0.66700006 10726326
0.28200001 0.24600001 0.66500002 10661045
0.28500003 0.24600001 0.66400003 10595253
0.287 0.245 0.66200006 10398643
0.29000002 0.245 0.66100001 10398644
0.29200003 0.245 0.65900004 10398387
0.29500002 0.245 0.65800005 10398130
0.29800001 0.245 0.65800005 10332851
0.30200002 0.245 0.65800005 10201264
0.30500001 0.245 0.65700001 10267058
0.30700001 0.245 0.65600002 10266288
0.31 0.245 0.65400004 10463919
0.31200001 0.24400002 0.65100002 8291718
-0.84900004 0.66100001 1.7370001 10254424
-0.84400004 0.66300005 1.7450001 10583903
-0.83600003 0.66300005 1.7470001 10781027
-0.82800007 0.66300005 1.7490001 10781540
-0.82100004 0.66400003 1.7530001 10518880
-0.81300002 0.66400003 1.7550001 10978149
-0.80700004 0.66500002 1.7600001 11241576
-0.79800004 0.66400003 1.7600001 10583646
-0.79100001 0.66400003 1.7630001 10583646
-0.78100002 0.66300005 1.7620001 11044195
-0.77400005 0.66300005 1.7650001 11044451
-0.76700002 0.66300005 1.7680001 11307110
-0.75900006 0.66300005 1.7700001 11043939
-0.75300002 0.66500002 1.7760001 11175781
-0.74500006 0.66500002 1.7780001 11109733
-0.73700005 0.66500002 1.7810001 11043939
-0.73000002 0.66500002 1.7830001 10122836
-0.72300005 0.66600001 1.7870001 11043681
-0.71400005 0.66500002 1.7870001 11042655
-0.70600003 0.66500002 1.789 10911322
-0.69900006 0.66500002 1.7920001 10779736
-0.69100004 0.66500002 1.7930001 10713173
-0.68300003 0.66500002 1.7960001 10515535
-0.67500001 0.66400003 1.7960001 10778707
-0.66800004 0.66600001 1.8010001 10713427
-0.66000003 0.66500002 1.802 10187083
-0.65400004 0.66700006 1.8080001 10318412
-0.64500004 0.66600001 1.8080001 10779220
-0.63800001 0.66600001 1.8100001 10910806
-0.63000005 0.66600001 1.812 10581584
-0.62200004 0.66600001 1.8140001 10121033
-0.61400002 0.66600001 1.8140001 10383951
-0.60600001 0.66600001 1.817 10449999
-0.59800005 0.66500002 1.817 10252876
-0.59100002 0.66600001 1.8210001 10779220
-0.583 0.66600001 1.8220001 10844500
-0.57500005 0.66600001 1.8230001 10712916
-0.56800002 0.66600001 1.8260001 10252622
-0.56100005 0.66700006 1.83 10121036
-0.55200005 0.66600001 1.8290001 10252623
-0.54400003 0.66600001 1.8310001 10515795
-0.537 0.66700006 1.8330001 10713174
-0.53000003 0.66800004 1.8370001 10646870
-0.52200001 0.66700006 1.8380001 10646870
-0.514 0.66800004 1.84 11107934
-0.50600004 0.66800004 1.8420001 10910556
-0.49900001 0.66800004 1.8430001 10383957
-0.49100003 0.66800004 1.8460001 11173471
-0.48300001 0.66800004 1.8470001 11107679
-0.47600001 0.66900003 1.8510001 10844762
-0.46800002 0.66900003 1.8520001 10713434
-0.46100003 0.67000002 1.8560001 10582108
-0.45300001 0.66900003 1.8560001 10055769
-0.44500002 0.67000002 1.858 11508370
-0.43800002 0.67000002 1.8600001 11646138
-0.43000001 0.67000002 1.8620001 11777986
-0.42300001 0.671 1.8660001 11515329
-0.41600001 0.67200005 1.8700001 11515329
-0.40800002 0.67300004 1.8730001 11581122
-0.40200001 0.67500001 1.8800001 11515329
-0.39700001 0.68000001 1.8950001 11449536
-0.11800001 0.215 0.60100001 11711676
-0.116 0.21700001 0.60600001 11843268
-0.11400001 0.21800001 0.60900003 11777728
-0.112 0.21900001 0.611 11711938
-0.11000001 0.21900001 0.61200005 11712194
-0.10700001 0.21900001 0.61300004 11646401
-0.105 0.22000001 0.61500001 11581122
-0.10300001 0.22000001 0.61600006 11646915
-0.1 0.22000001 0.61700004 11581122
-0.098000005 0.22000001 0.61800003 11581122
-0.095000006 0.22100002 0.61900002 11515584
-0.093000002 0.22100002 0.61900002 11581120
-0.090000004 0.22000001 0.61900002 11646657
-0.087000005 0.22100002 0.62 11646400
-0.085000001 0.22100002 0.62100005 11646400
-0.083000004 0.22100002 0.62200004 11449791
-0.080000006 0.22200002 0.62300003 11515327
-0.078000002 0.22200002 0.62400001 11514814
-0.075000003 0.22200002 0.625 11645887
-0.073000006 0.22200002 0.62600005 11580605
-0.07 0.22200002 0.62600005 11646143
-0.067000002 0.223 0.62700003 11580607
-0.065000005 0.223 0.62800002 11580350
-0.062000003 0.223 0.62800002 11580608
-0.060000002 0.223 0.62900001 11580608
-0.057000004 0.223 0.63000005 11646400
-0.055000003 0.223 0.63000005 11580094
-0.052000001 0.22400001 0.63100004 11514814
-0.049000002 0.22400001 0.63100004 11580607
-0.047000002 0.22400001 0.63200003 11580094
-0.044000003 0.22400001 0.63300002 11514555
-0.042000003 0.22400001 0.63300002 11514812
-0.039000001 0.22500001 0.634 11449019
-0.037 0.22400001 0.634 11448764
-0.034000002 0.22500001 0.63500005 11448764
-0.031000001 0.22500001 0.63500005 11514555
-0.029000001 0.22500001 0.63600004 11514556
-0.026000001 0.22500001 0.63700002 11514301
-0.023000002 0.22500001 0.63700002 11514301
-0.021000002 0.22600001 0.63800001 11580095
-0.018000001 0.22600001 0.63800001 11514301
-0.016000001 0.22600001 0.63800001 11580094
-0.013 0.22600001 0.63900006 11514556
-0.010000001 0.22600001 0.63900006 11580094
-0.0080000004 0.22600001 0.64000005 11514558
-0.0050000004 0.22600001 0.64000005 11580094
-0.0020000001 0.22700001 0.64100003 11580094
0 0.22700001 0.64200002 11514814
0.003 0.22700001 0.64200002 11514557
0.0060000001 0.22700001 0.64200002 11383228
0.0080000004 0.22700001 0.64300001 11514558
0.011000001 0.22700001 0.64300001 11514557
0.013 0.22700001 0.64300001 11514557
0.016000001 0.22800002 0.64400005 11449020
0.019000001 0.22800002 0.64500004 11448764
0.022000002 0.22900002 0.64600003 11448765
0.024 0.22900002 0.64600003 11449020
0.027000001 0.22900002 0.64700001 11449020
0.030000001 0.22900002 0.64700001 11448763
0.032000002 0.22900002 0.64700001 11449021
0.035 0.22900002 0.64700001 11514558
0.038000003 0.22900002 0.648 11514814
0.040000003 0.22900002 0.648 11383228
0.043000001 0.23 0.648 11449021
0.046000004 0.23 0.648 11514814
0.048 0.23 0.648 11383228
0.051000003 0.23 0.64900005 11317435
0.054000001 0.23 0.64900005 11317434
0.057000004 0.23 0.64900005 11251641
0.059000004 0.23 0.64900005 11317435
0.062000003 0.23 0.64900005 11317435
0.065000005 0.23100001 0.65000004 11251642
0.068000004 0.23100001 0.65000004 11317434
0.07 0.23100001 0.65100002 11382969
0.073000006 0.23100001 0.65100002 11382714
0.076000005 0.23200001 0.65200001 11382969
0.079000004 0.23200001 0.65300006 11382969
0.082000002 0.23200001 0.65400004 11382968
0.084000006 0.23300001 0.65400004 11317176
0.087000005 0.23300001 0.65400004 11382969
0.090000004 0.23300001 0.65500003 11382969
0.093000002 0.23300001 0.65500003 11382969
0.096000001 0.23400001 0.65600002 11382969
0.098000005 0.23400001 0.65600002 11317176
0.101 0.23400001 0.65600002 11317177
0.104 0.23400001 0.65600002 11382714
0.10700001 0.23400001 0.65600002 11316922
0.11000001 0.23400001 0.65600002 11316922
0.112 0.23400001 0.65600002 11251383
0.115 0.23400001 0.65600002 11382969
0.11800001 0.23400001 0.65600002 11316922
0.12100001 0.23500001 0.65700001 11316922
0.12400001 0.23500001 0.65700001 11316922
0.127 0.23500001 0.65700001 11316922
0.13000001 0.23600002 0.65800005 11317176
0.132 0.23600002 0.65800005 11317176
0.13500001 0.23600002 0.65800005 11317177
0.13800001 0.23600002 0.65800005 11382715
0.141 0.23600002 0.65800005 11316922
0.14400001 0.23600002 0.65800005 11317176
0.147 0.23700002 0.65900004 11317176
0.15000001 0.23700002 0.65900004 11251382
0.15300001 0.23700002 0.65900004 11251383
0.155 0.23700002 0.65900004 11317176
0.15800001 0.23700002 0.65900004 11251383
0.16100001 0.23800001 0.65900004 11251638
0.164 0.23800001 0.65900004 11186101
0.16700001 0.23800001 0.65900004 11120054
0.17 0.23800001 0.65900004 11185847
0.17300001 0.23900001 0.66000003 11185847
0.17600001 0.23900001 0.66000003 11120054
0.17900001 0.23900001 0.66000003 11120054
0.18200001 0.23900001 0.66000003 11185848
0.185 0.23900001 0.66000003 11185847
0.18800001 0.24000001 0.66100001 11120054
0.19100001 0.24000001 0.66100001 11120054
0.19400001 0.24000001 0.66100001 11120055
0.19700001 0.24100001 0.66100001 11120054
0.2 0.24100001 0.66100001 11054519
0.20300001 0.24100001 0.66100001 11055032
0.20600002 0.24100001 0.66100001 10989238
0.20900001 0.24200001 0.66200006 10923446
0.21200001 0.24200001 0.66200006 10989239
0.215 0.24200001 0.66100001 11055033
0.21800001 0.24200001 0.66200006 11054776
0.22100002 0.24300002 0.66200006 10989239
0.22400001 0.24300002 0.66200006 10989238
0.22700001 0.24300002 0.66200006 10923958
0.23100001 0.24400002 0.66300005 10923958
0.23400001 0.24400002 0.66300005 10923958
0.23700002 0.24400002 0.66300005 10923958
0.24000001 0.24400002 0.66200006 10923446
0.24300002 0.24400002 0.66200006 10858167
0.24600001 0.24400002 0.66100001 10989238
0.24900001 0.245 0.66100001 10989238
0.25100002 0.24400002 0.66000003 10923443
0.25500003 0.245 0.66100001 10857651
0.25800002 0.245 0.66100001 10857650
0.26200002 0.24600001 0.66200006 10923444
0.26500002 0.24600001 0.66200006 10726579
0.26800001 0.24700001 0.66300005 10792372
0.27100003 0.24700001 0.66200006 10792374
0.27400002 0.24700001 0.66200006 10726581
0.27700001 0.24700001 0.66100001 10726581
0.28 0.24700001 0.66000003 10529715
0.28200001 0.24700001 0.65800005 10595506
0.28500003 0.24600001 0.65600002 10464436
0.28800002 0.24600001 0.65500003 10332851
0.29000002 0.24600001 0.65400004 10332851
0.29300001 0.24600001 0.65300006 10463924
0.296 0.24600001 0.65200001 10529460
0.29900002 0.24600001 0.65200001 10332851
0.303 0.24600001 0.65200001 10267058
0.30600002 0.24700001 0.65200001 10201265
0.30800003 0.24600001 0.65000004 10267058
0.31100002 0.24600001 0.648 10267055
0.31100002 0.24400002 0.64300001 8356220
-0.83700001 0.66500002 1.728 10451803
-0.83200002 0.66700006 1.7350001 10649693
-0.82300001 0.66700006 1.7360001 10846820
-0.81500006 0.66600001 1.7370001 11110503
-0.80600005 0.66600001 1.738 11176296
-0.79800004 0.66500002 1.7390001 11242603
-0.79200006 0.66600001 1.7440001 10913894
-0.78400004 0.66600001 1.7460001 10780768
-0.77600002 0.66600001 1.7470001 10648414
-0.76800001 0.66500002 1.7490001 10846561
-0.76000005 0.66600001 1.7520001 10912352
-0.75300002 0.66600001 1.7540001 10978146
-0.74500006 0.66500002 1.7550001 10714975
-0.73800004 0.66600001 1.7600001 11109731
-0.72900003 0.66500002 1.7600001 10977889
-0.72300005 0.66600001 1.7640001 11109218
-0.71400005 0.66600001 1.7650001 10319445
-0.708 0.66700006 1.7700001 10911323
-0.70000005 0.66700006 1.771 11042909
-0.69300002 0.66800004 1.7760001 10845530
-0.68600005 0.66800004 1.7780001 10910553
-0.67800003 0.66700006 1.779 10778710
-0.67000002 0.66700006 1.7810001 10252876
-0.66200006 0.66700006 1.7830001 10384206
-0.65400004 0.66700006 1.784 10647122
-0.648 0.66800004 1.789 9989704
-0.64000005 0.66800004 1.7910001 10252363
-0.63300002 0.66900003 1.7950001 10054984
-0.625 0.66800004 1.7950001 10647121
-0.61700004 0.66900003 1.7980001 10712914
-0.60900003 0.66900003 1.7990001 10054471
-0.60100001 0.66800004 1.8000001 10054471
-0.59300005 0.66800004 1.8000001 10317643
-0.58600003 0.66800004 1.8030001 10581328
-0.57800001 0.66900003 1.8060001 10187083
-0.57100004 0.66900003 1.8080001 10779220
-0.56300002 0.66900003 1.8090001 10910808
-0.55600005 0.66900003 1.812 10712918
-0.54700005 0.66800004 1.812 10384208
-0.54000002 0.66900003 1.8150001 10449489
-0.53200001 0.66900003 1.8160001 10515795
-0.52500004 0.67000002 1.8200001 10713174
-0.51800001 0.67000002 1.8220001 10648151
-0.51000005 0.67000002 1.8240001 10646870
-0.50300002 0.67000002 1.8260001 10910298
-0.49500003 0.67000002 1.8270001 10844249
-0.48700002 0.67000002 1.8290001 10515799
-0.48000002 0.671 1.8310001 10253141
-0.47200003 0.67200005 1.835 10910301
-0.46500003 0.67200005 1.8360001 10778713
-0.45700002 0.671 1.8370001 10844247
-0.44900003 0.67200005 1.8390001 10450522
-0.44200003 0.67200005 1.8410001 12300979
-0.43400002 0.67200005 1.8410001 11646914
-0.42700002 0.67300004 1.845 11777733
-0.41900003 0.67300004 1.8470001 11646147
-0.41200003 0.67400002 1.8510001 11711940
-0.40500003 0.67600006 1.858 11646404
-0.39900002 0.67800003 1.8650001 11580867
-0.39400002 0.68400002 1.8820001 11449538
-0.11700001 0.21600001 0.59500003 11712193
-0.115 0.21700001 0.59900004 11843779
-0.11300001 0.21800001 0.60200006 11712194
-0.11100001 0.21900001 0.60400003 11580865
-0.109 0.21900001 0.60600001 11581122
-0.10600001 0.22000001 0.60700005 11515329
-0.104 0.22000001 0.60800004 11515329
-0.101 0.22000001 0.60900003 11581124
-0.099000007 0.22100002 0.611 11515329
-0.097000003 0.22100002 0.61200005 11646658
-0.094000004 0.22100002 0.61200005 11581377
-0.092000008 0.22100002 0.61300004 11581377
-0.089000002 0.22100002 0.61400002 11581122
-0.087000005 0.22100002 0.61400002 11515329
-0.084000006 0.22200002 0.61500001 11449536
-0.082000002 0.22200002 0.61600006 11646400
-0.079000004 0.22200002 0.61700004 11712193
-0.077000007 0.22200002 0.61800003 11580864
-0.074000001 0.223 0.61900002 11449791
-0.072000004 0.223 0.62 11580863
-0.069000006 0.223 0.62 11580864
-0.067000002 0.223 0.62100005 11580607
-0.064000003 0.22400001 0.62200004 11646400
-0.062000003 0.22400001 0.62300003 11646400
-0.059000004 0.22400001 0.62400001 11646400
-0.057000004 0.22400001 0.625 11646400
-0.054000001 0.22400001 0.625 11580607
-0.052000001 0.22500001 0.62600005 11515071
-0.049000002 0.22500001 0.62600005 11514814
-0.047000002 0.22500001 0.62700003 11514814
-0.044000003 0.22500001 0.62800002 11514812
-0.041000001 0.22500001 0.62800002 11514814
-0.039000001 0.22600001 0.62900001 11514814
-0.036000002 0.22600001 0.62900001 11580094
-0.034000002 0.22600001 0.63000005 11580095
-0.031000001 0.22600001 0.63000005 11580094
-0.029000001 0.22600001 0.63100004 11645887
-0.026000001 0.22600001 0.63100004 11645887
-0.023000002 0.22600001 0.63200003 11645887
-0.021000002 0.22600001 0.63200003 11580094
-0.018000001 0.22700001 0.63300002 11514301
-0.016000001 0.22700001 0.63300002 11580094
-0.013 0.22700001 0.634 11448508
-0.010000001 0.22700001 0.634 11514302
-0.0080000004 0.22700001 0.634 11449022
-0.0050000004 0.22700001 0.63500005 11449021
-0.0020000001 0.22800002 0.63600004 11514814
0 0.22800002 0.63600004 11514815
0.003 0.22800002 0.63600004 11514814
0.0050000004 0.22800002 0.63700002 11514814
0.0080000004 0.22800002 0.63700002 11580607
0.011000001 0.22800002 0.63700002 11514301
0.013 0.22900002 0.63800001 11514301
0.016000001 0.22900002 0.63900006 11514301
0.019000001 0.22900002 0.63900006 11580094
0.021000002 0.22900002 0.64000005 11449021
0.024 0.23 0.64100003 11449021
0.027000001 0.23 0.64100003 11449021
0.029000001 0.23 0.64200002 11383228
0.032000002 0.23 0.64200002 11383228
0.035 0.23 0.64200002 11383228
0.037 0.23100001 0.64300001 11580094
0.040000003 0.23100001 0.64300001 11580094
0.043000001 0.23100001 0.64300001 11449021
0.045000002 0.23100001 0.64300001 11449021
0.048 0.23100001 0.64400005 11383228
0.051000003 0.23100001 0.64400005 11317435
0.054000001 0.23100001 0.64400005 11252412
0.056000002 0.23200001 0.64500004 11383228
0.059000004 0.23200001 0.64500004 11317433
0.062000003 0.23200001 0.64500004 11251640
0.064000003 0.23200001 0.64500004 11317435
0.067000002 0.23200001 0.64500004 11317435
0.07 0.23200001 0.64600003 11317435
0.073000006 0.23300001 0.64700001 11317435
0.075000003 0.23300001 0.64700001 11448508
0.078000002 0.23300001 0.648 11382969
0.081 0.23400001 0.64900005 11382969
0.084000006 0.23400001 0.64900005 11448762
0.087000005 0.23400001 0.64900005 11382970
0.089000002 0.23400001 0.65000004 11382970
0.092000008 0.23400001 0.65000004 11382714
0.095000006 0.23400001 0.65000004 11316922
0.098000005 0.23500001 0.65100002 11382715
0.101 0.23500001 0.65100002 11382715
0.10300001 0.23500001 0.65100002 11382715
0.10600001 0.23500001 0.65100002 11382715
0.109 0.23500001 0.65100002 11316922
0.112 0.23500001 0.65100002 11382969
0.11400001 0.23600002 0.65100002 11317176
0.11700001 0.23600002 0.65100002 11382715
0.12 0.23600002 0.65100002 11382715
0.123 0.23600002 0.65200001 11316922
0.126 0.23600002 0.65200001 11251385
0.12900001 0.23700002 0.65200001 11316922
0.13100001 0.23700002 0.65200001 11251129
0.134 0.23700002 0.65300006 11316922
0.13700001 0.23700002 0.65200001 11316922
0.14 0.23700002 0.65300006 11316922
0.14300001 0.23800001 0.65300006 11316922
0.14600001 0.23800001 0.65300006 11251129
0.149 0.23800001 0.65300006 11251129
0.15100001 0.23800001 0.65300006 11251383
0.15400001 0.23800001 0.65300006 11251383
0.15700001 0.23800001 0.65300006 11185847
0.16000001 0.23800001 0.65300006 11120055
0.163 0.23900001 0.65300006 11185849
0.16600001 0.23900001 0.65300006 11185592
0.16900001 0.23900001 0.65300006 11120054
0.171 0.23900001 0.65300006 11251383
0.17500001 0.24000001 0.65400004 11120054
0.177 0.24000001 0.65400004 11120569
0.18000001 0.24000001 0.65400004 10989240
0.18400002 0.24100001 0.65500003 11185847
0.18700001 0.24100001 0.65500003 11185849
0.18900001 0.24100001 0.65500003 11120056
0.192 0.24100001 0.65500003 11054519
0.19500001 0.24100001 0.65500003 11055033
0.19800001 0.24200001 0.65500003 10989240
0.20100001 0.24200001 0.65500003 10989240
0.20500001 0.24200001 0.65600002 10989240
0.208 0.24300002 0.65600002 11055033
0.21100001 0.24300002 0.65600002 10989240
0.21400002 0.24300002 0.65600002 10989240
0.21700001 0.24300002 0.65600002 10989240
0.22000001 0.24400002 0.65600002 10989497
0.223 0.24400002 0.65600002 10923960
0.22600001 0.24400002 0.65600002 10989240
0.22900002 0.24400002 0.65600002 10989240
0.23200001 0.24400002 0.65600002 10989240
0.23500001 0.245 0.65600002 11055033
0.23800001 0.245 0.65600002 11055033
0.24100001 0.245 0.65500003 10923958
0.24400002 0.245 0.65500003 10858165
0.24700001 0.245 0.65500003 10923446
0.25 0.24600001 0.65500003 10989239
0.25300002 0.24600001 0.65500003 10923446
0.25600001 0.24700001 0.65600002 10923445
0.26000002 0.24700001 0.65600002 10858165
0.26300001 0.24700001 0.65600002 10858165
0.266 0.24800001 0.65700001 10792631
0.26900002 0.24800001 0.65600002 10726580
0.27200001 0.24800001 0.65600002 10792115
0.27500001 0.24800001 0.65500003 10726838
0.27700001 0.24700001 0.65300006 10792374
0.28 0.24700001 0.65200001 10660788
0.28200001 0.24700001 0.65000004 10529459
0.28500003 0.24700001 0.64900005 10529460
0.28800002 0.24600001 0.64700001 10529460
0.29100001 0.24700001 0.64700001 10529460
0.294 0.24700001 0.64600003 10463667
0.29700002 0.24700001 0.64700001 10463667
0.30100003 0.24800001 0.64700001 10398387
0.30400002 0.24800001 0.648 10332338
0.30700001 0.24800001 0.64600003 10332595
0.30900002 0.24800001 0.64500004 10201266
0.31200001 0.24800001 0.64300001 10332080
-0.83000004 0.66800004 1.7120001 9925716
-0.82300001 0.66800004 1.7160001 10386010
-0.81600004 0.66800004 1.7190001 10517596
-0.80800003 0.66800004 1.7210001 10912611
-0.80100006 0.66900003 1.7240001 10649696
-0.79300004 0.66800004 1.7260001 11373418
-0.78700006 0.67000002 1.7320001 10913638
-0.77900004 0.66900003 1.733 10780768
-0.77100003 0.66900003 1.7340001 10714205
-0.76300001 0.66800004 1.7350001 10713694
-0.75300002 0.66700006 1.733 10911585
-0.74600005 0.66800004 1.7370001 11042913
-0.73900002 0.66800004 1.7400001 10845278
-0.73300004 0.66900003 1.7450001 10647899
-0.72400004 0.66800004 1.7450001 10977118
-0.71700001 0.66800004 1.748 10779998
-0.70900005 0.66800004 1.7490001 11043169
-0.70200002 0.66900003 1.7530001 10516567
-0.69500005 0.66900003 1.756 10385238
-0.68700004 0.67000002 1.7590001 10713691
-0.68000001 0.67000002 1.761 10713944
-0.67300004 0.67000002 1.7640001 10581844
-0.66500002 0.67000002 1.7650001 10581587
-0.65700001 0.67000002 1.7670001 10318415
-0.64900005 0.66900003 1.7670001 10318156
-0.64200002 0.67000002 1.7720001 10319185
-0.63500005 0.671 1.7750001 10384207
-0.62800002 0.671 1.7780001 10383693
-0.62 0.671 1.779 9988677
-0.61200005 0.671 1.7820001 10581328
-0.60500002 0.671 1.784 10712914
-0.597 0.671 1.7850001 10449229
-0.588 0.67000002 1.784 9594433
-0.58200002 0.671 1.7880001 10383949
-0.574 0.671 1.789 10120522
-0.56600004 0.671 1.7910001 10712915
-0.55800003 0.67000002 1.7910001 10910296
-0.551 0.67200005 1.7960001 10844759
-0.54400003 0.671 1.7970001 10712661
-0.53600001 0.671 1.7990001 10515282
-0.528 0.67200005 1.8010001 10449489
-0.52100003 0.67200005 1.8030001 10252624
-0.51300001 0.67200005 1.8040001 10450004
-0.50600004 0.67300004 1.8080001 10778455
-0.49800003 0.67200005 1.8080001 10581077
-0.49100003 0.67200005 1.8100001 10646870
-0.48300001 0.67300004 1.8130001 10910042
-0.47600001 0.67300004 1.8150001 10976091
-0.46800002 0.67300004 1.817 10383956
-0.46100003 0.67400002 1.8200001 10712922
-0.45400003 0.67500001 1.8230001 10975575
-0.44600001 0.67400002 1.8230001 10714723
-0.43800002 0.67400002 1.8240001 11973299
-0.43000001 0.67400002 1.825 10921644
-0.42300001 0.67500001 1.8280001 10922418
-0.41600001 0.67500001 1.8310001 11185847
-0.40900001 0.67600006 1.835 11383229
-0.40200001 0.67900002 1.8420001 11580353
-0.39600003 0.68100005 1.8500001 11515329
-0.39200002 0.68800002 1.8710001 11515329
-0.115 0.215 0.58600003 11581121
-0.11300001 0.21600001 0.58900005 11647170
-0.11100001 0.21700001 0.59200001 11581122
-0.109 0.21800001 0.59500003 11581122
-0.10700001 0.21800001 0.59600002 11646659
-0.105 0.21900001 0.59800005 11515329
-0.10200001 0.21900001 0.59900004 11450049
-0.1 0.22000001 0.60000002 11515842
-0.098000005 0.22000001 0.60200006 11515331
-0.095000006 0.22100002 0.60300004 11515585
-0.093000002 0.22100002 0.60400003 11581377
-0.091000006 0.22100002 0.60500002 11515585
-0.088000007 0.22100002 0.60600001 11581122
-0.086000003 0.22200002 0.60800004 11515329
-0.083000004 0.22200002 0.60800004 11515331
-0.081 0.223 0.61000001 11515584
-0.079000004 0.223 0.611 11449791
-0.076000005 0.223 0.61200005 11449536
-0.074000001 0.223 0.61300004 11515329
-0.071000002 0.22400001 0.61400002 11384511
-0.069000006 0.22400001 0.61400002 11515329
-0.066 0.22400001 0.61500001 11515072
-0.064000003 0.22400001 0.61600006 11712194
-0.061000004 0.22400001 0.61700004 11580608
-0.059000004 0.22500001 0.61800003 11515072
-0.056000002 0.22500001 0.61900002 11449536
-0.054000001 0.22500001 0.62 11449536
-0.051000003 0.22500001 0.62 11383743
-0.049000002 0.22600001 0.62100005 11580607
-0.046000004 0.22600001 0.62200004 11580605
-0.044000003 0.22600001 0.62200004 11711934
-0.041000001 0.22600001 0.62300003 11646398
-0.039000001 0.22700001 0.62400001 11646398
-0.036000002 0.22700001 0.62400001 11646400
-0.033 0.22700001 0.625 11646400
-0.031000001 0.22700001 0.625 11514815
-0.028000001 0.22700001 0.62600005 11580608
-0.026000001 0.22700001 0.62600005 11514815
-0.023000002 0.22700001 0.62700003 11514815
-0.021000002 0.22700001 0.62700003 11580607
-0.018000001 0.22800002 0.62800002 11514814
-0.015000001 0.22800002 0.62800002 11645887
-0.013 0.22800002 0.62800002 11580094
-0.010000001 0.22800002 0.62900001 11580095
-0.0080000004 0.22800002 0.62900001 11580608
-0.0050000004 0.22800002 0.63000005 11514815
-0.0020000001 0.22800002 0.63000005 11383743
0 0.22900002 0.63100004 11514815
0.003 0.22900002 0.63100004 11514815
0.0050000004 0.22900002 0.63100004 11514815
0.0080000004 0.22900002 0.63200003 11514815
0.011000001 0.22900002 0.63200003 11514815
0.013 0.23 0.63300002 11514815
0.016000001 0.23 0.634 11514815
0.019000001 0.23 0.634 11449022
0.021000002 0.23 0.63500005 11514558
0.024 0.23 0.63500005 11514814
0.027000001 0.23100001 0.63600004 11449278
0.029000001 0.23100001 0.63700002 11383998
0.032000002 0.23100001 0.63700002 11449021
0.035 0.23100001 0.63700002 11449021
0.037 0.23200001 0.63800001 11449021
0.040000003 0.23200001 0.63800001 11449021
0.043000001 0.23200001 0.63800001 11449021
0.045000002 0.23200001 0.63800001 11383226
0.048 0.23200001 0.63900006 11449021
0.051000003 0.23200001 0.63900006 11317435
0.053000003 0.23200001 0.63900006 11186619
0.056000002 0.23300001 0.64000005 11120824
0.059000004 0.23300001 0.64000005 11317433
0.061000004 0.23300001 0.64000005 11383226
0.064000003 0.23300001 0.64000005 11317435
0.067000002 0.23300001 0.64100003 11317435
0.07 0.23400001 0.64200002 11383228
0.072000004 0.23400001 0.64200002 11383228
0.075000003 0.23400001 0.64300001 11383227
0.078000002 0.23400001 0.64300001 11382972
0.080000006 0.23400001 0.64300001 11448508
0.083000004 0.23500001 0.64400005 11448508
0.086000003 0.23500001 0.64400005 11382716
0.089000002 0.23500001 0.64400005 11382715
0.091000006 0.23500001 0.64400005 11382715
0.094000004 0.23600002 0.64500004 11382715
0.097000003 0.23600002 0.64500004 11316922
0.1 0.23600002 0.64500004 11316922
0.10300001 0.23600002 0.64500004 11382715
0.105 0.23600002 0.64500004 11382715
0.108 0.23600002 0.64500004 11316922
0.11100001 0.23600002 0.64500004 11316922
0.11300001 0.23600002 0.64500004 11251642
0.116 0.23600002 0.64500004 11316922
0.119 0.23700002 0.64500004 11251129
0.12200001 0.23700002 0.64500004 11251642
0.125 0.23700002 0.64600003 11185849
0.12800001 0.23700002 0.64600003 11382715
0.13000001 0.23800001 0.64700001 11317435
0.133 0.23800001 0.64700001 11185849
0.13600001 0.23800001 0.64700001 11317435
0.13900001 0.23800001 0.64700001 11251642
0.142 0.23800001 0.64700001 11186106
0.14400001 0.23800001 0.64700001 11186362
0.148 0.23900001 0.648 11186619
0.15000001 0.23900001 0.64700001 11120826
0.15300001 0.23900001 0.64700001 10989240
0.156 0.23900001 0.64700001 11120826
0.15900001 0.23900001 0.64700001 11055033
0.16100001 0.23900001 0.64600003 11055033
0.164 0.24000001 0.64700001 11120569
0.16700001 0.24000001 0.64700001 11251642
0.17 0.24000001 0.64700001 11251640
0.17300001 0.24100001 0.648 11120054
0.17600001 0.24100001 0.648 11185849
0.17900001 0.24100001 0.64900005 11120056
0.18200001 0.24100001 0.64900005 11185849
0.185 0.24200001 0.64900005 11185847
0.18800001 0.24200001 0.64900005 11120056
0.19100001 0.24200001 0.64900005 11120056
0.19400001 0.24300002 0.65000004 11054263
0.19700001 0.24200001 0.64900005 11054263
0.2 0.24300002 0.64900005 11185849
0.20300001 0.24300002 0.64900005 11120312
0.20600002 0.24300002 0.65000004 10989239
0.208 0.24300002 0.64900005 11055033
0.21100001 0.24400002 0.64900005 10989240
0.21400002 0.24400002 0.64900005 11054263
0.21700001 0.24400002 0.64900005 11055033
0.22100002 0.245 0.65000004 11055033
0.22400001 0.245 0.65000004 10923447
0.22700001 0.245 0.65100002 11055033
0.23 0.24600001 0.65100002 10989240
0.23300001 0.24600001 0.65000004 11055033
0.23600002 0.24600001 0.65000004 10989240
0.23900001 0.24600001 0.64900005 10989240
0.24200001 0.24600001 0.64900005 10989240
0.245 0.24600001 0.64900005 10989240
0.24800001 0.24600001 0.64900005 10923447
0.25100002 0.24700001 0.65000004 10923447
0.25400001 0.24700001 0.65000004 10857654
0.257 0.24800001 0.65000004 10857654
0.26100001 0.24800001 0.65000004 10923447
0.264 0.24800001 0.65000004 10923447
0.26700002 0.24900001 0.65000004 10858167
0.27000001 0.24900001 0.65000004 10792374
0.273 0.24900001 0.64900005 10726581
0.27600002 0.24900001 0.648 10726581
0.27800003 0.24800001 0.64600003 10660788
0.28100002 0.24800001 0.64500004 10595253
0.28300002 0.24800001 0.64300001 10463667
0.28600001 0.24800001 0.64200002 10529460
0.289 0.24800001 0.64200002 10332851
0.29200003 0.24800001 0.64100003 10332851
0.29500002 0.24800001 0.64100003 10463667
0.29900002 0.24900001 0.64200002 10332594
0.30200002 0.24900001 0.64200002 10267058
0.30500001 0.24900001 0.64100003 10267057
0.30800003 0.25 0.64100003 10201265
0.31 0.24900001 0.63900006 10135471
-0.81600004 0.67000002 1.6990001 10386010
-0.81000006 0.671 1.7040001 10583131
-0.80200005 0.67000002 1.705 10648410
-0.79400003 0.671 1.7080001 10517594
-0.78700006 0.671 1.71 11307623
-0.78000003 0.671 1.7140001 11177321
-0.77200001 0.671 1.7160001 10912867
-0.76400006 0.671 1.7180001 10911584
-0.75600004 0.671 1.7190001 10844765
-0.74800003 0.67000002 1.72 10647899
-0.74100006 0.67000002 1.7220001 10779228
-0.73300004 0.67000002 1.7240001 11107424
-0.72600001 0.67000002 1.7270001 10975837
-0.71800005 0.67000002 1.7290001 10384725
-0.71000004 0.67000002 1.7300001 10845020
-0.70300001 0.67000002 1.7320001 10384725
-0.69500005 0.67000002 1.7340001 10910811
-0.68900001 0.671 1.7390001 10778967
-0.68200004 0.67200005 1.743 9858635
-0.67500001 0.67200005 1.7460001 10845017
-0.66800004 0.67300004 1.7490001 10713173
-0.66000003 0.67200005 1.7500001 10581585
-0.65200001 0.67200005 1.751 10581328
-0.64400005 0.67200005 1.7520001 10383949
-0.63700002 0.67200005 1.7550001 10449485
-0.62900001 0.67300004 1.7580001 10383694
-0.62200004 0.67300004 1.761 10383951
-0.61500001 0.67300004 1.7630001 10449488
-0.60700005 0.67300004 1.7650001 10054986
-0.60000002 0.67300004 1.7670001 10778709
-0.59200001 0.67300004 1.7680001 10515022
-0.58400005 0.67300004 1.7690001 10910292
-0.57700002 0.67300004 1.771 10647378
-0.56900001 0.67300004 1.7720001 10449741
-0.56100005 0.67200005 1.7730001 10252363
-0.55400002 0.67300004 1.7770001 10383949
-0.54700005 0.67300004 1.779 10515537
-0.53900003 0.67400002 1.7810001 10778709
-0.53200001 0.67400002 1.784 10713174
-0.52400005 0.67300004 1.7830001 10581590
-0.51700002 0.67400002 1.7860001 10515284
-0.509 0.67300004 1.7860001 10383698
-0.50100005 0.67400002 1.789 10318418
-0.49300003 0.67300004 1.789 10581590
-0.48700002 0.67400002 1.7930001 10647127
-0.47900003 0.67500001 1.7960001 10449493
-0.47200003 0.67500001 1.7980001 10778969
-0.46500003 0.67600006 1.8010001 10910299
-0.45700002 0.67600006 1.8030001 10976094
-0.45000002 0.67600006 1.8050001 10120275
-0.44200003 0.67600006 1.8060001 11109487
-0.43400002 0.67600006 1.807 11250602
-0.42700002 0.67600006 1.8090001 10988970
-0.42000002 0.67700005 1.8110001 11448244
-0.41300002 0.67800003 1.8150001 11580087
-0.40600002 0.67900002 1.8190001 11777465
-0.39900002 0.68100005 1.825 11843771
-0.39400002 0.68500006 1.8370001 11646137
-0.39000002 0.69300002 1.8590001 11449272
-0.11400001 0.215 0.57800001 11647172
-0.112 0.21600001 0.58100003 11581124
-0.11000001 0.21700001 0.58400005 11581124
-0.108 0.21800001 0.58600003 11515331
-0.10600001 0.21800001 0.58700001 11646401
-0.10300001 0.21800001 0.588 11646401
-0.101 0.21900001 0.59000003 11515329
-0.099000007 0.21900001 0.59100002 11515842
-0.096000001 0.21900001 0.59200001 11450049
-0.094000004 0.22000001 0.59300005 11581122
-0.092000008 0.22000001 0.59400004 11580611
-0.089000002 0.22000001 0.59500003 11646147
-0.087000005 0.22000001 0.59600002 11581122
-0.085000001 0.22100002 0.59800005 11449536
-0.082000002 0.22100002 0.59900004 11581122
-0.080000006 0.22200002 0.60000002 11581122
-0.078000002 0.22200002 0.60200006 11515329
-0.075000003 0.22200002 0.60200006 11581122
-0.073000006 0.22200002 0.60300004 11515329
-0.07 0.223 0.60400003 11515584
-0.068000004 0.223 0.60600001 11449791
-0.065000005 0.22400001 0.60700005 11515584
-0.063000001 0.22400001 0.60800004 11515584
-0.061000004 0.22500001 0.61000001 11712194
-0.058000002 0.22500001 0.611 11581122
-0.056000002 0.22500001 0.61200005 11581122
-0.053000003 0.22600001 0.61300004 11515585
-0.051000003 0.22600001 0.61400002 11515072
-0.048 0.22600001 0.61500001 11581122
-0.046000004 0.22700001 0.61600006 11515072
-0.043000001 0.22700001 0.61600006 11580608
-0.041000001 0.22700001 0.61700004 11580608
-0.038000003 0.22700001 0.61800003 11646401
-0.036000002 0.22700001 0.61800003 11646401
-0.033 0.22700001 0.61900002 11646401
-0.031000001 0.22800002 0.62 11646401
-0.028000001 0.22800002 0.62 11580608
-0.026000001 0.22800002 0.62100005 11580608
-0.023000002 0.22800002 0.62100005 11580608
-0.020000001 0.22800002 0.62100005 11580607
-0.018000001 0.22800002 0.62200004 11580607
-0.015000001 0.22900002 0.62300003 11514814
-0.013 0.22900002 0.62300003 11645887
-0.010000001 0.22900002 0.62400001 11580352
-0.0080000004 0.22900002 0.62400001 11514815
-0.0050000004 0.22900002 0.625 11515072
-0.0020000001 0.22900002 0.625 11317950
0 0.22900002 0.625 11449022
0.003 0.23 0.62600005 11514815
0.0050000004 0.23 0.62600005 11514815
0.0080000004 0.23 0.62700003 11580608
0.011000001 0.23 0.62700003 11317950
0.013 0.23100001 0.62800002 11317950
0.016000001 0.23100001 0.62800002 11514815
0.018000001 0.23100001 0.62900001 11514815
0.021000002 0.23100001 0.63000005 11514815
0.024 0.23100001 0.63000005 11449022
0.026000001 0.23200001 0.63100004 11514815
0.029000001 0.23200001 0.63100004 11317950
0.032000002 0.23200001 0.63200003 11449022
0.034000002 0.23200001 0.63200003 11383228
0.037 0.23200001 0.63200003 11449021
0.040000003 0.23200001 0.63200003 11514814
0.042000003 0.23200001 0.63200003 11514814
0.045000002 0.23300001 0.63300002 11449021
0.048 0.23300001 0.63300002 11449021
0.050000001 0.23300001 0.634 11383229
0.053000003 0.23400001 0.63500005 11317949
0.056000002 0.23400001 0.63500005 11252412
0.058000002 0.23400001 0.63500005 11383228
0.061000004 0.23400001 0.63500005 11317435
0.064000003 0.23400001 0.63500005 11383228
0.066 0.23400001 0.63600004 11383228
0.069000006 0.23500001 0.63700002 11383226
0.072000004 0.23500001 0.63700002 11383226
0.075000003 0.23500001 0.63800001 11317435
0.077000007 0.23500001 0.63800001 11383228
0.080000006 0.23500001 0.63800001 11383228
0.083000004 0.23600002 0.63800001 11317436
0.085000001 0.23600002 0.63900006 11382716
0.088000007 0.23600002 0.63900006 11382716
0.091000006 0.23600002 0.63900006 11382716
0.094000004 0.23600002 0.63900006 11382715
0.096000001 0.23600002 0.63900006 11382715
0.099000007 0.23700002 0.64000005 11316923
0.10200001 0.23700002 0.64000005 11382716
0.105 0.23700002 0.64000005 11382972
0.10700001 0.23700002 0.64000005 11251643
0.11000001 0.23700002 0.64000005 11251642
0.11300001 0.23700002 0.63900006 11317435
0.115 0.23700002 0.63900006 11251129
0.11800001 0.23800001 0.64000005 11251129
0.12100001 0.23800001 0.64000005 11251642
0.12400001 0.23800001 0.64000005 11251899
0.127 0.23800001 0.64100003 11251642
0.12900001 0.23900001 0.64100003 11317435
0.132 0.23900001 0.64100003 11251642
0.13500001 0.23900001 0.64100003 11251641
0.13800001 0.23900001 0.64100003 11251642
0.141 0.23900001 0.64100003 11185849
0.14400001 0.24000001 0.64200002 11251642
0.14600001 0.24000001 0.64200002 11251642
0.149 0.24000001 0.64200002 11185849
0.15200001 0.24000001 0.64200002 11185849
0.15400001 0.24000001 0.64100003 11251642
0.15700001 0.24000001 0.64100003 11186362
0.16000001 0.24000001 0.64000005 11055033
0.163 0.24000001 0.64000005 11251642
0.16600001 0.24000001 0.64000005 11185847
0.16900001 0.24100001 0.64100003 11185847
0.17200001 0.24100001 0.64200002 11185847
0.17500001 0.24100001 0.64200002 11251642
0.178 0.24200001 0.64300001 11185849
0.18100001 0.24200001 0.64300001 11185849
0.18300001 0.24200001 0.64300001 11185850
0.186 0.24300002 0.64300001 11120056
0.18900001 0.24300002 0.64300001 11120057
0.192 0.24300002 0.64300001 11185849
0.19500001 0.24300002 0.64300001 11120055
0.19800001 0.24300002 0.64300001 11120054
0.20100001 0.24400002 0.64300001 11185848
0.20400001 0.24400002 0.64300001 11055032
0.20700002 0.24400002 0.64300001 11055031
0.20900001 0.24400002 0.64200002 11055031
0.21300001 0.245 0.64300001 10989240
0.21600001 0.245 0.64300001 10989240
0.21900001 0.245 0.64300001 10923447
0.22200002 0.24600001 0.64400005 10923447
0.22500001 0.24600001 0.64400005 10989240
0.22800002 0.24600001 0.64400005 10989240
0.23100001 0.24600001 0.64400005 10923447
0.23400001 0.24600001 0.64300001 10989240
0.23700002 0.24600001 0.64300001 10857654
0.24000001 0.24700001 0.64300001 10989240
0.24300002 0.24700001 0.64300001 10923447
0.24600001 0.24700001 0.64300001 10923447
0.24900001 0.24800001 0.64400005 10923704
0.252 0.24800001 0.64400005 10858167
0.25600001 0.24900001 0.64500004 10857654
0.259 0.24900001 0.64500004 10792374
0.26200002 0.24900001 0.64500004 10923960
0.26500002 0.24900001 0.64400005 10792374
0.26800001 0.25 0.64400005 10792374
0.27100003 0.25 0.64300001 10726581
0.273 0.24900001 0.64200002 10660786
0.27600002 0.24900001 0.64100003 10661045
0.27800003 0.24900001 0.63900006 10464436
0.28100002 0.24800001 0.63700002 10332851
0.28300002 0.24800001 0.63600004 10464437
0.287 0.24900001 0.63600004 10398644
0.289 0.24900001 0.63500005 10267315
0.29300001 0.24900001 0.63600004 10267315
0.296 0.25 0.63600004 10267058
0.29900002 0.25 0.63600004 10267058
0.303 0.25 0.63600004 10135729
0.30600002 0.25100002 0.63600004 10201522
-0.80300003 0.67300004 1.687 10714205
-0.79300004 0.671 1.6850001 10122068
-0.78700006 0.67200005 1.6900001 10582619
-0.78200006 0.67400002 1.697 10451033
-0.77500004 0.67500001 1.702 10649182
-0.76900005 0.67600006 1.7060001 11044197
-0.75800002 0.67300004 1.702 10583646
-0.75100005 0.67300004 1.705 10846047
-0.74300003 0.67300004 1.705 10517596
-0.73400003 0.671 1.7040001 10319447
-0.72800004 0.67300004 1.71 10515543
-0.72000003 0.67200005 1.7110001 10844510
-0.71300006 0.67300004 1.7140001 10318935
-0.70400006 0.67200005 1.7140001 10055762
-0.69800001 0.67300004 1.7180001 10450518
-0.69000006 0.67200005 1.7190001 10450772
-0.68300003 0.67300004 1.7220001 10450516
-0.67600006 0.67400002 1.7260001 10450516
-0.66900003 0.67400002 1.7290001 9463877
-0.66100001 0.67400002 1.7310001 10977628
-0.65400004 0.67400002 1.7340001 10778966
-0.64700001 0.67400002 1.7360001 10647380
-0.63900006 0.67400002 1.7370001 10647377
-0.63200003 0.67500001 1.7400001 10647121
-0.62400001 0.67500001 1.7420001 10186827
-0.61800003 0.67600006 1.7460001 10384462
-0.61000001 0.67500001 1.7470001 10384462
-0.60300004 0.67600006 1.7500001 10449229
-0.59500003 0.67500001 1.7500001 9857605
-0.588 0.67600006 1.7530001 10647121
-0.57900006 0.67500001 1.7530001 9989192
-0.57200003 0.67500001 1.7550001 10580816
-0.565 0.67500001 1.7570001 10317643
-0.55700004 0.67500001 1.7580001 9857092
-0.54900002 0.67500001 1.7600001 10449229
-0.54200006 0.67600006 1.7630001 9923398
-0.53500003 0.67600006 1.7650001 10581330
-0.528 0.67600006 1.7670001 10647123
-0.52000004 0.67600006 1.7690001 10713174
-0.51300001 0.67600006 1.771 10778456
-0.50400001 0.67500001 1.7690001 10581075
-0.49700001 0.67500001 1.771 10317905
-0.48900002 0.67500001 1.7720001 10449491
-0.48200002 0.67600006 1.7760001 10383698
-0.47500002 0.67600006 1.7760001 10712663
-0.46800002 0.67700005 1.7810001 10515285
-0.46100003 0.67700005 1.7830001 10515286
-0.45300001 0.67800003 1.7850001 10844508
-0.44600001 0.67800003 1.7880001 10778972
-0.43800002 0.67800003 1.789 10582627
-0.43100002 0.67900002 1.7920001 10921638
-0.42400002 0.67900002 1.7930001 10527389
-0.41600001 0.67900002 1.794 10724260
-0.40900001 0.68000001 1.7990001 10790052
-0.40200001 0.68100005 1.8030001 10724259
-0.39600003 0.68300003 1.8100001 10658724
-0.39100003 0.68800002 1.8220001 10724259
-0.38800001 0.69600004 1.8460001 10724259
-0.11300001 0.21600001 0.57300001 11974334
-0.11100001 0.21600001 0.57500005 11646141
-0.109 0.21700001 0.57700002 11514555
-0.10700001 0.21800001 0.57900006 11251894
-0.104 0.21800001 0.57900006 11317687
-0.10200001 0.21800001 0.58100003 11251640
-0.1 0.21800001 0.58100003 11317435
-0.097000003 0.21800001 0.58200002 11449021
-0.095000006 0.21900001 0.583 11514814
-0.093000002 0.21900001 0.58400005 11646401
-0.090000004 0.21900001 0.58500004 11712194
-0.088000007 0.21900001 0.58600003 11580608
-0.086000003 0.22000001 0.58700001 11712193
-0.083000004 0.22000001 0.58900005 11646400
-0.081 0.22100002 0.59000003 11646915
-0.079000004 0.22100002 0.59100002 11515329
-0.076000005 0.22100002 0.59200001 11515329
-0.074000001 0.22200002 0.59300005 11581122
-0.072000004 0.22200002 0.59400004 11581122
-0.069000006 0.22200002 0.59400004 11581122
-0.067000002 0.22200002 0.59600002 11449536
-0.064000003 0.223 0.597 11581122
-0.062000003 0.223 0.59800005 11515329
-0.060000002 0.223 0.59900004 11581122
-0.057000004 0.22400001 0.60000002 11581122
-0.055000003 0.22400001 0.60200006 11581122
-0.052000001 0.22500001 0.60300004 11515329
-0.050000001 0.22500001 0.60400003 11450049
-0.048 0.22500001 0.60500002 11450049
-0.045000002 0.22600001 0.60600001 11515584
-0.043000001 0.22600001 0.60700005 11580864
-0.040000003 0.22600001 0.60700005 11515329
-0.038000003 0.22600001 0.60800004 11449536
-0.035 0.22700001 0.60900003 11449536
-0.033 0.22700001 0.611 11515329
-0.030000001 0.22800002 0.61200005 11580608
-0.028000001 0.22800002 0.61300004 11580608
-0.025 0.22800002 0.61400002 11646401
-0.023000002 0.22900002 0.61500001 11580608
-0.020000001 0.22900002 0.61500001 11449536
-0.018000001 0.22900002 0.61600006 11580608
-0.015000001 0.22900002 0.61600006 11514815
-0.013 0.22900002 0.61700004 11580608
-0.010000001 0.22900002 0.61700004 11580608
-0.0070000002 0.23 0.61800003 11580608
-0.0050000004 0.23 0.61900002 11580608
-0.0020000001 0.23 0.61900002 11580608
0 0.23 0.61900002 11514815
0.003 0.23 0.62 11580608
0.0050000004 0.23100001 0.62100005 11580608
0.0080000004 0.23100001 0.62100005 11580608
0.011000001 0.23100001 0.62200004 11515072
0.013 0.23100001 0.62200004 11514815
0.016000001 0.23100001 0.62200004 11514814
0.018000001 0.23200001 0.62300003 11514814
0.021000002 0.23200001 0.62400001 11514815
0.024 0.23200001 0.62400001 11514815
0.026000001 0.23200001 0.625 11514815
0.029000001 0.23300001 0.62600005 11514815
0.031000001 0.23300001 0.62600005 11449022
0.034000002 0.23300001 0.62700003 11449022
0.037 0.23300001 0.62700003 11449022
0.039000001 0.23300001 0.62700003 11514815
0.042000003 0.23300001 0.62700003 11514814
0.045000002 0.23400001 0.62800002 11449021
0.047000002 0.23400001 0.62800002 11449021
0.050000001 0.23400001 0.62900001 11383228
0.052000001 0.23400001 0.62900001 11449021
0.055000003 0.23400001 0.62900001 11383228
0.058000002 0.23400001 0.62900001 11383228
0.060000002 0.23500001 0.63000005 11383228
0.063000001 0.23500001 0.63000005 11383228
0.066 0.23500001 0.63100004 11383228
0.069000006 0.23600002 0.63200003 11317435
0.071000002 0.23600002 0.63200003 11383228
0.074000001 0.23600002 0.63200003 11317434
0.077000007 0.23600002 0.63300002 11317435
0.079000004 0.23600002 0.63300002 11317436
0.082000002 0.23700002 0.63300002 11448509
0.085000001 0.23700002 0.63300002 11382715
0.087000005 0.23700002 0.63300002 11382715
0.090000004 0.23700002 0.63300002 11448508
0.093000002 0.23700002 0.63300002 11316923
0.095000006 0.23700002 0.63300002 11382716
0.098000005 0.23800001 0.634 11317436
0.101 0.23800001 0.634 11186364
0.104 0.23800001 0.634 11186364
0.10600001 0.23800001 0.634 11120571
0.109 0.23800001 0.63500005 11185850
0.112 0.23800001 0.634 11317436
0.11400001 0.23800001 0.634 11317436
0.11700001 0.23800001 0.634 11251643
0.12 0.23800001 0.634 11251643
0.123 0.23900001 0.634 11120571
0.126 0.23900001 0.63500005 11317435
0.12800001 0.23900001 0.634 11185849
0.13100001 0.23900001 0.63500005 11317435
0.134 0.23900001 0.63500005 11251642
0.13700001 0.24000001 0.63500005 11185849
0.14 0.24000001 0.63600004 11251642
0.142 0.24000001 0.63600004 11251642
0.14500001 0.24000001 0.63600004 11317435
0.148 0.24100001 0.63600004 11251641
0.15100001 0.24100001 0.63600004 11317435
0.15300001 0.24100001 0.63500005 11251642
0.156 0.24100001 0.63500005 11251642
