# .PCD v0.7 - Point Cloud Data file format
VERSION 0.7
FIELDS x y z rgb
SIZE 4 4 4 4
TYPE F F F U
COUNT 1 1 1 1
WIDTH 1167
HEIGHT 1
VIEWPOINT 0 0 0 1 0 0 0
POINTS 1167
DATA ascii
0.0015 0.259 0.72350001 10519912
0.0075000003 0.259 0.72250009 10783600
0.012 0.259 0.72200006 9861982
0.0165 0.259 0.72200006 9730140
0.022500001 0.25850001 0.72150004 9861984
0.027000001 0.25700003 0.72250003 9730397
0.031500001 0.25700003 0.72250003 10454377
0.037500001 0.25700003 0.722 10388326
0.042000003 0.25700003 0.72150004 10651240
0.046000004 0.25666669 0.72200006 10454376
0.052500002 0.25600001 0.72200006 10651756
0.057000004 0.25600001 0.72100002 10849140
0.061500002 0.25550002 0.72049999 10585965
0.066 0.25500003 0.72000003 10717552
-0.027000001 0.26300001 0.72400004 9732714
-0.022500001 0.26300001 0.72400004 9929063
-0.018000001 0.26300001 0.72150004 10190430
-0.014000001 0.26266667 0.72133332 9992794
-0.0075000003 0.2615 0.72150004 9269071
-0.003 0.26100001 0.72100002 10124895
0.0015 0.26100001 0.72049999 10717547
0.0075000003 0.26100001 0.72000003 10586219
-0.076499999 0.26900002 0.72200006 10850948
-0.072000004 0.26900002 0.72200006 11048327
-0.067500003 0.26900002 0.72150004 10851203
-0.063000001 0.26900002 0.72100002 11246218
-0.058500003 0.26750001 0.72250003 10850943
-0.052500002 0.26700002 0.72250003 10718582
-0.048 0.26700002 0.722 10455406
-0.043500002 0.26700002 0.72175002 10125924
-0.037500001 0.26550001 0.72250009 10323301
-0.033 0.26500002 0.72200006 8678998
-0.028500002 0.26500002 0.72150004 10126441
-0.022500001 0.26500002 0.72100002 10717290
-0.11800001 0.27400002 0.72200006 11313313
-0.1135 0.27400002 0.72200006 9536376
-0.109 0.27400002 0.72200006 11180934
-0.10350001 0.27350003 0.72200006 11378576
-0.097000003 0.27233335 0.72200006 10917767
-0.093000002 0.27200001 0.72250003 10588545
-0.088500008 0.27100003 0.72175002 10916995
-0.082500003 0.27100003 0.72150004 10850947
-0.16100001 0.27900001 0.72200006 10653560
-0.15800001 0.27900001 0.72200006 10455668
-0.15350001 0.27775002 0.72275007 10324597
-0.14750001 0.27700001 0.72250003 10258291
-0.14250001 0.27700001 0.72250003 10719095
-0.138 0.27700001 0.72250003 10850425
-0.13175 0.27650002 0.72250003 11312521
-0.127 0.27600002 0.722 10259579
-0.123 0.27566668 0.72200006 11115143
-0.192 0.28299999 0.72225004 10917758
-0.18700001 0.28250003 0.72150004 10917500
-0.18266667 0.28166667 0.72200006 10456434
-0.178 0.28100002 0.72300005 10324335
-0.17250001 0.28049999 0.72250009 10389871
-0.16800001 0.28 0.72200006 9732200
-0.16500001 0.28 0.72200006 10784890
-0.248 0.289 0.72300005 10127463
-0.24300002 0.289 0.72300005 9074261
-0.23800001 0.28850001 0.72300005 9995363
-0.23300001 0.28800002 0.72300005 9336919
-0.22800002 0.28800002 0.72300005 9336410
-0.22150001 0.287 0.72300005 9929319
-0.21600001 0.28600001 0.72200006 10785655
-0.21300001 0.28600001 0.72200006 10918013
-0.208 0.28600001 0.72200006 10786685
-0.20300001 0.28500003 0.72100002 10391157
-0.19800001 0.28500003 0.72100002 10522488
-0.29650003 0.294 0.72300005 10062960
-0.29100001 0.29300001 0.72300005 9535847
-0.28800002 0.29300001 0.72300005 8483159
-0.28250003 0.29250002 0.72300005 9535591
-0.27650002 0.29300001 0.72150004 9206370
-0.27233335 0.29233336 0.72200006 9535590
-0.26733336 0.29266667 0.72100002 9798761
-0.26199999 0.29133335 0.72200006 9404002
-0.25733337 0.29166672 0.72100002 9403232
-0.2525 0.29100001 0.72150004 9930087
-0.2475 0.29150003 0.72000003 10192744
-0.24200001 0.29100001 0.72000003 9205591
-0.23750001 0.29100001 0.72000003 10126178
-0.23200001 0.29000002 0.72000003 9205074
-0.22750002 0.29000002 0.72000003 9139028
-0.223 0.29000002 0.72000003 10126955
-0.34200001 0.29900002 0.72400004 8616286
-0.33800003 0.29900002 0.72400004 10129014
-0.333 0.29800001 0.72400004 9208425
-0.32700002 0.29700002 0.72400004 7892310
-0.32200003 0.2976667 0.72266668 9405289
-0.31666669 0.29733333 0.72100002 9141600
-0.31200004 0.29699999 0.722 9931117
-0.30766669 0.29566669 0.72233337 9207139
-0.30233335 0.29633334 0.72133332 9075294
-0.29700002 0.296 0.72000003 9733482
-0.292 0.296 0.72000003 9799788
-0.287 0.29500002 0.72000003 9272418
-0.28300002 0.29500002 0.72000003 9535590
-0.28 0.29500002 0.72000003 9996398
-0.33700001 0.30000001 0.72000003 9668463
-0.33400002 0.30000001 0.72100002 9800304
-0.32800001 0.30000001 0.72100002 8287582
-0.017000001 -0.036000002 0.72900003 4473169
-0.012500001 -0.036000002 0.72750008 4669779
-0.0066666664 -0.037 0.72733337 8018267
-0.003 -0.037500001 0.727 8937052
0.0015 -0.037500001 0.72650009 9134172
0.0075000003 -0.039000001 0.72650003 9858150
0.012 -0.039000001 0.72600001 9398112
0.0165 -0.039000001 0.72650003 8608852
0.021500003 -0.039000001 0.72700006 8674903
0.028000003 -0.038000003 0.72666669 8543834
0.032000002 -0.037500001 0.72750002 8215126
0.036499999 -0.036000002 0.72750008 8149846
-0.0275 -0.033 0.72850001 9003613
-0.021500003 -0.033 0.72549999 8016719
0.042500004 -0.033 0.72600001 8019031
0.047000002 -0.033 0.72800004 8018259
-0.037 -0.027000001 0.72800004 10910832
-0.033 -0.028500002 0.72675002 10516332
-0.029000001 -0.030000001 0.72500002 10516334
0.049000002 -0.030000001 0.72700006 6310215
0.052000001 -0.028500002 0.727 4996673
0.055000003 -0.027000001 0.72800004 3681336
-0.041000005 -0.022 0.72833341 11173487
-0.037 -0.022500001 0.72600007 10252644
-0.034000002 -0.024 0.72500002 10909549
0.056500003 -0.024 0.72650003 4142400
0.061000004 -0.021000002 0.72800004 3681591
-0.047000002 -0.016666668 0.72833341 9268580
-0.041500002 -0.018000001 0.72600007 7164751
0.063000001 -0.017333334 0.72633338 4077119
0.067000002 -0.016000001 0.72900003 5915719
-0.055000003 -0.010000001 0.72900003 7629678
-0.052000001 -0.011500001 0.72800004 9667457
-0.049000002 -0.011500001 0.72600007 7037799
-0.043000001 -0.015000001 0.72500002 5653319
0.067000002 -0.013 0.72500002 5193284
0.071000002 -0.011000001 0.72733337 7163983
-0.055000003 -0.0070000002 0.72600001 7697530
-0.052000001 -0.0070000002 0.72500002 8483698
0.073000006 -0.0070000002 0.72600001 6967628
0.076000005 -0.0070000002 0.72800004 6309950
-0.061000004 -0.001 0.72800004 7301744
-0.057500005 -0.0025000002 0.72600007 8022375
0.077333339 -0.0030000003 0.72666669 6638917
0.082000002 -0.001 0.72900003 6770251
0.49100003 -0.001 0.72700006 13556174
0.505 -0.001 0.72900003 11845565
-0.060000002 0.0020000001 0.72700006 6644591
0.081 0.0020000001 0.72700006 6508361
0.48600003 0.0020000001 0.72600001 14213581
-0.066 0.0080000004 0.72800004 10647395
-0.063500002 0.0065000001 0.727 8218467
-0.060000002 0.0050000004 0.72500002 6842227
0.083000004 0.0060000005 0.72666675 5981506
0.47300002 0.0090000005 0.72600001 13817793
0.48050004 0.0050000004 0.727 13949632
-0.068000004 0.011333334 0.72733337 10056036
0.084000006 0.011000001 0.72600001 4864828
0.087000005 0.013 0.72900003 3156533
0.46500003 0.012 0.72600001 14146245
-0.072000004 0.019000001 0.72800004 10644309
-0.069000006 0.016000001 0.72600001 11697249
0.087000005 0.016000001 0.72600001 3748663
0.090000004 0.019000001 0.72900003 4076597
0.45700002 0.0165 0.72900003 14277568
-0.072000004 0.022000002 0.72800004 11104600
0.090000004 0.022000002 0.72700006 4601909
-0.072000004 0.026500002 0.72650003 10973018
0.090000004 0.026500002 0.72549999 5587263
0.44700003 0.026500002 0.72600007 14539958
-0.072000004 0.032500003 0.72700006 9001549
0.093000002 0.032500003 0.72850001 4469553
0.44100001 0.034000002 0.72600001 14998173
-0.072000004 0.038000003 0.72700006 5194830
0.093000002 0.037 0.72800004 5126708
0.43800002 0.037 0.72800004 14801320
-0.072000004 0.042000003 0.72600001 8475979
0.093000002 0.041000001 0.72700006 5915965
0.4325 0.042500004 0.72850001 14801322
-0.075000003 0.046500001 0.72850001 9921617
0.093000002 0.046500001 0.72700006 6375488
0.42900002 0.047000002 0.72600001 14998431
-0.075000003 0.052500002 0.72800004 10709845
0.093000002 0.052500002 0.72800004 6374975
0.42700002 0.053000003 0.72900003 15128717
-0.075000003 0.057000004 0.72900003 10382942
0.092000008 0.057000004 0.727 5848629
0.42700002 0.057000004 0.72800004 15194245
-0.072000004 0.061500002 0.72549999 9987925
0.090000004 0.061500002 0.72549999 5651250
0.42600003 0.061500002 0.72600001 14996607
-0.072000004 0.067500003 0.72750008 10315855
0.090500005 0.067500003 0.72800004 5716791
0.42600003 0.067500003 0.72600001 14929777
-0.073000006 0.072000004 0.72900003 9987661
-0.069000006 0.072500005 0.72549999 9395783
0.084000006 0.074000001 0.72500002 5716792
0.087000005 0.072000004 0.72600001 5519412
0.42700002 0.073000006 0.72700006 14994279
-0.07 0.077000007 0.72800004 10054483
0.084000006 0.077000007 0.72600001 5783607
0.088000007 0.076499999 0.72850001 5454132
0.25600001 0.077000007 0.72600001 14738133
0.287 0.075000003 0.72900003 14344404
0.29150003 0.075000003 0.72800004 14081236
0.29700002 0.075000003 0.72800004 13686735
0.31 0.079000004 0.72800004 12502461
0.42800003 0.076000005 0.72800004 14664797
0.4316667 0.078000002 0.7256667 13744725
-0.066500001 0.081500009 0.72650003 9593676
0.081500001 0.081500009 0.72549999 6177595
0.085000001 0.082000002 0.72800004 5783093
0.24600001 0.083000004 0.72600001 14605508
0.25 0.080000006 0.72700006 14540745
0.31600001 0.082000002 0.72500002 12502971
0.4375 0.083000004 0.72750008 12627020
0.44300002 0.083000004 0.72600001 11903044
0.44600001 0.083000004 0.72500002 11442753
0.45200002 0.083000004 0.72500002 10719812
0.45900002 0.083000004 0.72700006 10062920
-0.063000001 0.088 0.72633338 9264199
0.078000002 0.088 0.72666669 6178108
0.082000002 0.086000003 0.72800004 5980726
0.24350002 0.087500006 0.72650003 14801335
0.32300001 0.085000001 0.72500002 12238514
0.33100003 0.089000002 0.72800004 11646362
-0.061000004 0.092000008 0.72800004 9132354
0.073000006 0.092000008 0.72500002 4666162
0.076000005 0.092000008 0.72800004 5849146
0.24100001 0.092000008 0.72800004 15129001
-0.056500003 0.096500009 0.72700006 9198405
0.071500003 0.096500009 0.72750008 4271916
0.24100001 0.096500009 0.72700006 14930847
0.34100002 0.095000006 0.72500002 12502174
-0.055000003 0.101 0.72900003 9527113
-0.052000001 0.101 0.72600001 9263684
-0.049000002 0.10300001 0.72600001 9198662
0.064000003 0.10300001 0.72500002 2957344
0.067000002 0.10250001 0.72750002 2826790
0.24250001 0.10250001 0.727 14733205
-0.046000004 0.10700001 0.72700006 7160626
-0.040000003 0.109 0.72600001 8673859
0.058000002 0.109 0.72500002 4862765
0.0625 0.10650001 0.72650003 3482916
0.24600001 0.10700001 0.72650003 14535823
-0.042000003 0.11150001 0.72850001 8543046
-0.038000003 0.112 0.72700006 7754308
-0.035 0.112 0.72500002 7096639
0.057000004 0.1125 0.72650003 5322288
0.062000003 0.11000001 0.72800004 3417124
0.24800001 0.11000001 0.72700006 14272389
0.25100002 0.11400001 0.72700006 13943164
-0.033500001 0.1155 0.72850001 5258036
-0.027000001 0.11633334 0.727 4403501
-0.023000002 0.11800001 0.72600001 6898738
0.044000003 0.11800001 0.72500002 5517349
0.047000002 0.11800001 0.72700006 5649959
0.050999999 0.11633334 0.72700006 5913904
0.056000002 0.116 0.72900003 5322799
0.25400001 0.11700001 0.72700006 13482873
0.354 0.115 0.72800004 10656881
-0.021500003 0.12100001 0.727 8804930
-0.017000001 0.12400001 0.72700006 7950134
-0.012500001 0.12400001 0.72549999 7686965
-0.0070000002 0.12400001 0.72500002 7358261
0.0275 0.12400001 0.72549999 6307120
0.032000002 0.12400001 0.72600001 6043690
0.036499999 0.1225 0.72600007 5978155
0.042500004 0.12100001 0.72750008 5781291
0.25800002 0.12 0.72900003 13022321
0.26100001 0.12 0.72600001 12890990
0.26600003 0.123 0.72650003 11706196
0.34800002 0.12400001 0.72900003 10327398
-0.020000001 0.125 0.72900003 8278332
-0.011000001 0.127 0.72900003 7358518
-0.0075000003 0.127 0.72850001 7358260
-0.003 0.127 0.72800004 7359029
0.0015 0.127 0.72750008 7490616
0.0075000003 0.127 0.72800004 5913133
0.012 0.127 0.72800004 4730148
0.0165 0.127 0.72800004 5387819
0.022500001 0.127 0.72800004 6702392
0.028000001 0.1275 0.72850001 6636341
0.038000003 0.125 0.72900003 6373171
0.273 0.12650001 0.72650003 13022569
0.33600003 0.12900001 0.72600001 10786394
0.27800003 0.13000001 0.72800004 11837788
0.28100002 0.13000001 0.72600001 11640410
0.29200003 0.134 0.72900003 11114068
0.29650003 0.134 0.72750008 10719312
0.30200002 0.134 0.72800004 10258247
0.32200003 0.132 0.72500002 9929794
0.32600001 0.132 0.72700006 10982481
0.30600002 0.13500001 0.72800004 9864005
0.347 0.21800001 0.72900003 10324334
0.35100001 0.21900001 0.72900003 9929830
0.31700003 0.223 0.72850001 10193001
0.32200003 0.22200002 0.72700006 9600610
0.32700002 0.22125001 0.72750002 10324333
0.33200002 0.22150001 0.72650003 10324077
0.33750004 0.22050002 0.72700006 10521456
0.34200001 0.22100002 0.72600001 10061162
0.34600002 0.22100002 0.72600001 10522228
0.35150003 0.22100002 0.72600001 9995623
0.35700002 0.22200002 0.72600001 9534813
0.36100003 0.22200002 0.72600001 9600350
0.36650002 0.22250001 0.72600001 10061154
0.3725 0.222 0.72750002 10061410
0.37650001 0.222 0.72750002 9995618
0.38133335 0.223 0.727 9797723
0.38666669 0.22266668 0.72799999 9600858
0.27500001 0.22900002 0.72900003 10652006
0.28750002 0.22800002 0.727 10257505
0.29250002 0.22700001 0.72750008 10718314
0.29750001 0.22600001 0.72750002 10323814
0.30200002 0.22633334 0.72633332 10521449
0.30650002 0.22500001 0.72750008 9797466
0.3125 0.22500001 0.72600001 9535069
0.317 0.22500001 0.72500002 10061157
0.193 0.23400001 0.72900003 10587257
0.19750002 0.23400001 0.72900003 10192242
0.20200001 0.23400001 0.72800004 9534311
0.20500001 0.23400001 0.72800004 10060654
0.21400002 0.23400001 0.72600001 10455922
0.22800002 0.23300001 0.72900003 9994858
0.23250002 0.23300001 0.72850001 10784629
0.23800001 0.23300001 0.72800004 10916214
0.24250001 0.23300001 0.72700006 10389354
0.24700001 0.23300001 0.72600001 10652524
0.252 0.23200002 0.72724998 10257506
0.257 0.23250002 0.72650003 10454884
0.26249999 0.23100001 0.72750008 10718057
0.26700002 0.23200001 0.72700006 10257505
0.27200001 0.23200001 0.72600001 9994077
0.27750003 0.23100001 0.727 10323040
0.28166667 0.23066668 0.72666675 10257248
0.149 0.23800001 0.72900003 10456447
0.15200001 0.23900001 0.72900003 11179143
0.15650001 0.2385 0.72800004 10718592
0.163 0.23733334 0.72733337 10719107
0.16750002 0.23700002 0.72750002 10456189
0.17200001 0.237 0.727 9666416
0.17733334 0.23766668 0.72600001 10784640
0.18150002 0.23600002 0.72750008 10587261
0.1875 0.23600002 0.72650003 10521979
0.192 0.23600002 0.72600001 10389878
0.1965 0.23600002 0.72500002 10258033
0.20100001 0.23700002 0.72500002 10915708
0.20700002 0.23600002 0.72650003 9994347
0.21100001 0.23500001 0.72700006 9534308
0.21800001 0.23500001 0.72600001 10193520
0.22250001 0.23500001 0.72600001 10521715
0.22700001 0.23500001 0.72600001 9797992
0.23200001 0.23500001 0.72500002 10324336
0.10300001 0.24300002 0.72900003 9995113
0.1075 0.24300002 0.72850001 10915961
0.112 0.24300002 0.72800004 10521463
0.11650001 0.24300002 0.72700006 10916735
0.123 0.24233335 0.72733337 10587258
0.127 0.24200001 0.72750002 10389878
0.13150001 0.24200001 0.727 10521467
0.13750002 0.24200001 0.72650003 9929588
0.142 0.24100001 0.72700006 10456189
0.14650001 0.24100001 0.72650003 10456445
0.1525 0.24100001 0.72549999 10587776
0.15800001 0.24100001 0.72500002 10324604
0.063000001 0.24900001 0.72900003 10586479
0.066 0.24900001 0.72900003 10915444
0.071000002 0.24900001 0.72850001 11113081
0.076499999 0.24800001 0.72700006 10718324
0.082500003 0.24800001 0.72650003 10982008
0.086666673 0.24666667 0.72799999 9994598
0.092000008 0.24700001 0.72650003 10390127
0.096500002 0.24700001 0.72600007 9600612
0.101 0.2455 0.72650003 10850678
0.10700001 0.2455 0.72549999 10719094
0.022500001 0.25400001 0.72800004 10322276
0.027000001 0.25400001 0.72700006 9927775
0.031500001 0.25400001 0.72700006 10059361
0.037500001 0.25400001 0.72650003 10585961
0.042000003 0.25400001 0.72600001 9796701
0.046500005 0.25300002 0.72750002 10651498
0.052500002 0.25275001 0.72675002 10717550
0.057000004 0.25100002 0.72700006 10914929
0.061500002 0.25100002 0.72650003 10914931
0.067500003 0.25100002 0.72549999 11047029
0.072000004 0.25100002 0.72500002 11047288
-0.0135 0.25800002 0.72900003 10586480
-0.0075000003 0.257 0.72800004 9270104
-0.003 0.257 0.72700006 11112308
0.0015 0.257 0.72650003 10257257
0.0075000003 0.257 0.72600001 10322535
0.012 0.25600001 0.72750002 10059361
0.0165 0.25550002 0.72700006 9927262
0.022500001 0.25600001 0.72500002 9927006
-0.057000004 0.264 0.72700006 10784634
-0.052500002 0.264 0.72700006 10981754
-0.048 0.264 0.72700006 10718317
-0.043000001 0.26300001 0.72733337 10256989
-0.037500001 0.26225001 0.727 10981745
-0.033 0.26200002 0.72650003 11180160
-0.029000001 0.26133335 0.72666675 11246470
-0.022500001 0.26000002 0.72700006 10850681
-0.018000001 0.26000002 0.72600001 8678480
-0.0135 0.26000002 0.72600001 9862238
-0.0075000003 0.26000002 0.72500002 9400915
-0.1075 0.26900002 0.72800004 11641747
-0.10300001 0.26900002 0.72800004 10129024
-0.098499998 0.26900002 0.72800004 11049610
-0.092500001 0.26800001 0.72700006 11377547
-0.087000005 0.26800001 0.72600001 10456187
-0.082999997 0.26675001 0.72750002 10653568
-0.076750003 0.26600003 0.72675002 10653569
-0.072000004 0.26600003 0.72650003 11245705
-0.067500003 0.26600003 0.72650003 10653567
-0.063000001 0.26600003 0.72650003 10653309
-0.060000002 0.26500002 0.72800004 10126706
-0.15000001 0.27400002 0.72800004 10521205
-0.14600001 0.27400002 0.72700006 11244926
-0.14300001 0.27400002 0.72700006 9337441
-0.13850001 0.27350003 0.72700006 11048831
-0.13250001 0.273 0.72700006 10984067
-0.12800001 0.273 0.72700006 10983814
-0.12300001 0.27100003 0.72750002 11115663
-0.11766667 0.27066669 0.72766668 10655117
-0.113 0.27133334 0.72633338 9864819
-0.1075 0.27100003 0.72500002 11115143
-0.10300001 0.27100003 0.72500002 11247245
-0.1 0.27100003 0.72500002 11378831
-0.183 0.27900001 0.72650003 10785143
-0.17650001 0.27850002 0.72600001 10324079
-0.17200001 0.27700001 0.72750002 10784632
-0.16800003 0.27666667 0.72799999 10521462
-0.163 0.27633336 0.72600001 10521718
-0.15800001 0.27566668 0.72700006 10784889
-0.15300001 0.27500001 0.72800004 11442818
-0.21800001 0.28200001 0.72900003 10127984
-0.21275002 0.28299999 0.72750002 11049602
-0.20666666 0.28233334 0.72799999 10983553
-0.20200001 0.28233334 0.72600001 10983295
-0.19750002 0.28200001 0.72650003 11181702
-0.19300002 0.28 0.72750008 10983296
-0.18800001 0.28 0.72700006 10982783
-0.27100003 0.289 0.72600001 9469282
-0.2665 0.289 0.72700006 9732710
-0.26100001 0.28800002 0.72700006 9864037
-0.25800002 0.28800002 0.72700006 9798244
-0.2525 0.28750002 0.72600001 9929316
-0.24800001 0.287 0.72700006 10061156
-0.24250001 0.28650001 0.72600001 9731937
-0.23700002 0.287 0.72700006 9929315
-0.23400001 0.28600001 0.72700006 8942420
-0.22850001 0.28550002 0.72600001 9336409
-0.22250001 0.28500003 0.72600001 10126440
-0.21700001 0.28500003 0.72600001 9996140
-0.32100001 0.294 0.72700006 8812894
-0.317 0.294 0.72700006 9206627
-0.31400001 0.29300001 0.72700006 9733483
-0.30849999 0.29300001 0.72700006 9470054
-0.303 0.29300001 0.72800004 8746332
-0.29750001 0.29200003 0.72700006 9996399
-0.29200003 0.29100001 0.72700006 9404261
-0.287 0.29100001 0.72700006 9141089
-0.28200001 0.29000002 0.72700006 9667176
-0.27800003 0.29000002 0.72700006 9404004
-0.27500001 0.29000002 0.72700006 9404002
-0.34300002 0.29700002 0.72700006 8682079
-0.33750004 0.296 0.72700006 9077353
-0.33200002 0.29500002 0.72700006 8945256
-0.32800001 0.29500002 0.72700006 8616293
-0.32500002 0.29500002 0.72700006 9207910
-0.011000001 -0.042000003 0.73400003 10976373
-0.0070000002 -0.042000003 0.73250008 10515822
-0.003 -0.042000003 0.73100001 10253420
0.0015 -0.043499999 0.73199999 9200733
0.0075000003 -0.043500002 0.73199999 9332832
0.012 -0.043500002 0.73199999 8609111
0.0165 -0.043500002 0.73224998 8082768
0.022000002 -0.042000003 0.73100001 8477526
0.0275 -0.042000003 0.73200005 8675419
0.032000002 -0.042000003 0.73300004 8149845
0.035 -0.042000003 0.73400003 7491914
-0.0275 -0.036000002 0.73300004 6837079
-0.021500003 -0.036000002 0.73049998 5326162
-0.017000001 -0.039000001 0.73400003 7887195
-0.012500001 -0.039000001 0.73150003 8608598
-0.0080000004 -0.039000001 0.73100001 8937563
0.036499999 -0.039000001 0.73100007 7820881
0.042000007 -0.037 0.73133332 8150617
0.047000002 -0.036000002 0.73200005 6442315
-0.038000003 -0.033 0.73400003 10845302
-0.033500001 -0.033 0.73150003 10516850
0.0515 -0.033 0.73199999 4799296
-0.041333336 -0.028000003 0.73233336 10910833
-0.038000003 -0.030000001 0.73100001 11240314
0.057000004 -0.028500002 0.73250008 3813178
-0.047499999 -0.022500001 0.73200005 10975853
-0.043000001 -0.024 0.73100001 11172975
0.0625 -0.022500001 0.73150003 5259076
0.066 -0.023000002 0.73400003 6837074
-0.055000003 -0.016000001 0.73400003 8548203
-0.052000001 -0.017500002 0.73199999 9006439
-0.049000002 -0.018000001 0.73000002 10384485
0.067000002 -0.019000001 0.73100001 6902356
0.071000002 -0.017000003 0.73233336 7099213
-0.056500003 -0.011500001 0.73200005 8811118
0.073000006 -0.013 0.73000002 7033421
0.077 -0.011000001 0.73233336 6309955
-0.061000004 -0.0070000002 0.73300004 8614512
-0.058000002 -0.0070000002 0.73000002 10189675
0.079000004 -0.0070000002 0.73000002 6507329
-0.0625 -0.0025000002 0.73150003 7433075
0.082000002 -0.0040000002 0.73100001 6704455
0.085000001 -0.001 0.73300004 6638921
0.48900002 -0.001 0.73000002 13753039
-0.067000002 0.0020000001 0.73300004 10387566
-0.064000003 0.0020000001 0.73100001 7499128
0.085000001 0.0020000001 0.73000002 6376006
0.48400003 0.0020000001 0.73000002 14147785
-0.068499997 0.0065000001 0.73100001 8348507
0.088000007 0.0065000001 0.73250008 4864827
0.47200003 0.0090000005 0.73000002 13883586
0.47800002 0.0050000004 0.73300004 13554620
-0.073000006 0.012 0.73300004 8873822
0.088000007 0.011000001 0.73100001 4339773
0.091000006 0.014 0.73400003 3091507
0.46500003 0.012 0.73200005 14212037
-0.076000005 0.017500002 0.73300004 10908508
-0.072000004 0.016000001 0.73000002 11368803
0.091000006 0.016000001 0.73200005 3287860
-0.076000005 0.022000002 0.73200005 11301979
0.094000004 0.022000002 0.73300004 3352877
0.45100003 0.021000002 0.73000002 14343099
-0.075000003 0.026500002 0.73049998 11367776
0.093500003 0.026500002 0.73049998 3484203
0.44900003 0.025 0.73200005 14605493
-0.075500004 0.032500003 0.73049998 9723987
0.097000003 0.034000002 0.73400003 3155752
0.44200003 0.032500003 0.73150003 14538656
-0.076000005 0.037 0.73100001 5981260
0.097000003 0.037 0.73300004 3352616
0.43700001 0.038000003 0.73300004 14605228
-0.076000005 0.041500002 0.73150003 5653832
0.097000003 0.041500002 0.73150003 3616044
0.43400002 0.041000001 0.73400003 14736042
-0.079000004 0.049000002 0.73300004 11039839
0.097000003 0.047500003 0.73100001 5061431
0.43000001 0.047000002 0.73300004 14998423
-0.079000004 0.053000003 0.73300004 11104602
0.097000003 0.052000001 0.73100001 6177853
0.42800003 0.050000001 0.73100001 15128980
-0.079000004 0.058000002 0.73400003 10383456
0.097000003 0.056000002 0.73200005 6112061
0.42600003 0.057000004 0.73300004 15127939
-0.076000005 0.061500002 0.73049998 7555903
0.094000004 0.061500002 0.73000002 5585202
0.097000003 0.061000004 0.73400003 6112572
0.42500001 0.061500002 0.73150003 14931071
-0.076000005 0.067500003 0.73300004 10645335
0.094000004 0.067500003 0.73199999 5650998
0.42500001 0.066 0.73100001 14996344
0.091000006 0.072000004 0.73000002 5585205
0.42500001 0.071500003 0.73100001 15126900
-0.073000006 0.076499999 0.73199999 9725775
0.091000006 0.076499999 0.73300004 5388340
0.25300002 0.077500001 0.73199999 14475214
0.26300001 0.075000003 0.73199999 14540244
0.26700002 0.075000003 0.73000002 14409687
0.27250004 0.075000003 0.73049998 13949137
0.27800003 0.075000003 0.73200005 13423305
0.28250003 0.075000003 0.73150003 13817802
0.30100003 0.076000005 0.73100001 13489357
0.31600001 0.079000004 0.73400003 12436410
0.42750001 0.077500001 0.73100007 14205020
0.48900002 0.078000002 0.73400003 8616255
-0.07 0.082500003 0.73250002 9857881
0.088000007 0.082500003 0.73199999 5519924
0.24650002 0.082500003 0.73200005 14473923
0.32200003 0.082000002 0.73100001 12502459
0.42700002 0.080000006 0.73400003 14270813
0.43200004 0.083000004 0.73150003 13416023
0.46600002 0.084000006 0.73100001 9799760
0.47400004 0.081 0.73000002 8812343
-0.067000002 0.087000005 0.73100001 9463125
0.085000001 0.087000005 0.73100001 5914935
0.24150002 0.088 0.73150003 14604470
0.44150001 0.087000005 0.7335 12166476
0.44600001 0.087000005 0.73200005 11311170
0.45000002 0.087000005 0.73100001 10851138
0.45500001 0.087000005 0.73200005 10653766
0.46000001 0.087000005 0.73400003 9865796
-0.067000002 0.090000004 0.73300004 8674636
-0.064000003 0.093000002 0.73200005 9132868
0.079000004 0.092000008 0.73000002 5848627
0.082000002 0.091499999 0.73100007 5652020
0.085000001 0.090000004 0.73300004 5520435
0.24000001 0.093000002 0.73400003 14537127
0.34 0.092000008 0.73000002 12303762
-0.061000004 0.097000003 0.73199999 9330762
-0.058000002 0.098000005 0.73000002 9460550
0.073000006 0.098000005 0.73100001 4862252
0.077333339 0.097000003 0.73200005 5913908
0.23900001 0.097500004 0.73250008 14733728
-0.059000004 0.10200001 0.73400003 9001543
-0.052000001 0.104 0.73000002 9396041
0.071999997 0.1015 0.73150003 4731693
0.24000001 0.10200001 0.73300004 14995864
-0.056000002 0.105 0.73300004 9528140
-0.053000003 0.10700001 0.73300004 8410948
-0.049000002 0.10700001 0.73000002 7884605
0.068000004 0.10700001 0.73200005 4009775
0.071000002 0.105 0.73300004 4534572
0.24250001 0.1065 0.73150003 14404496
0.35600001 0.10600001 0.73400003 11645071
-0.048000004 0.11133334 0.73233336 7951426
-0.044000003 0.11300001 0.73100001 8543304
0.062000003 0.11300001 0.73200005 3022883
0.065000005 0.11000001 0.73200005 3022626
0.2475 0.11250001 0.73100001 14075267
-0.041000001 0.116 0.73200005 7491136
-0.038000003 0.11750001 0.73199999 5848889
-0.033500001 0.119 0.73250008 3878446
-0.029000001 0.119 0.73000002 4404529
0.053000003 0.119 0.73100001 5783604
0.057500005 0.11750001 0.73250008 4140586
0.252 0.11700001 0.73100001 13812092
-0.0275 0.12200001 0.73199999 7031356
0.047000002 0.12200001 0.73000002 6439475
0.0515 0.1225 0.73300004 5914932
0.25600001 0.12100001 0.73200005 13219444
0.2615 0.12400001 0.73250002 12298854
-0.026000001 0.125 0.73400003 8608578
-0.022000002 0.12700002 0.73233336 8212538
-0.017000001 0.12800001 0.73100001 7818554
-0.014 0.12800001 0.73000002 7621431
0.032000002 0.12800001 0.73000002 6767413
0.036499999 0.12800001 0.73150003 6372655
0.042000007 0.126 0.73200005 6241585
0.047000002 0.126 0.73400003 6372142
0.26800001 0.1275 0.73250002 12232799
0.34500003 0.127 0.73000002 10195293
-0.013 0.13100001 0.7335 7489589
-0.0075000003 0.13100001 0.73250008 7161138
-0.003 0.13100001 0.73200005 7160880
0.0015 0.13100001 0.73100001 7161654
0.0075000003 0.13100001 0.73250008 4664099
0.012 0.13100001 0.73400003 5059628
0.0165 0.13100001 0.7335 4862506
0.022500001 0.13100001 0.73250008 5585197
0.027000001 0.13100001 0.73300004 6768179
0.031500001 0.13100001 0.7335 6306861
0.27600002 0.13100001 0.73100001 12232546
0.28799999 0.134 0.73100007 10982738
0.33100003 0.133 0.73000002 10588235
0.33600003 0.134 0.73400003 10127947
0.34300002 0.13100001 0.73400003 10457694
0.28400001 0.13500001 0.73400003 11508824
0.31200001 0.13500001 0.73049998 9534786
0.31800002 0.13600001 0.73200005 9205818
0.32200003 0.13600001 0.73300004 10390345
0.324 0.21800001 0.73400003 10127209
0.32700002 0.21800001 0.73300004 10455663
0.33200002 0.21800001 0.73150003 10587251
0.3366667 0.21633334 0.73266667 9600870
0.34200001 0.21733333 0.73100001 10588279
0.347 0.21600001 0.73300004 10061932
0.35200003 0.21600001 0.73200005 9337693
0.35550001 0.21800001 0.73150003 9206105
0.36200002 0.21700001 0.73300004 9995621
0.36700001 0.21700001 0.73200005 9929569
0.3725 0.21800001 0.73250008 9666398
0.37900001 0.21900001 0.73300004 9140051
0.38200003 0.21900001 0.73200005 10784876
0.38600001 0.21900001 0.73200005 10390372
0.296 0.22200002 0.73400003 10521707
0.30150002 0.22200002 0.73250008 10323553
0.3075 0.22250001 0.73100001 9271381
0.3116667 0.22100002 0.73233336 10126692
0.31600001 0.22000001 0.73200005 10718830
0.3215 0.22000001 0.73049998 10324076
0.35900003 0.22000001 0.73000002 9666143
0.36200002 0.22000001 0.73000002 10126694
0.36600003 0.22000001 0.73000002 9600605
0.37 0.22100002 0.73000002 9863777
0.39200002 0.22000001 0.73300004 9534293
0.24300002 0.22900002 0.73400003 10718574
0.2475 0.22900002 0.7335 10718316
0.252 0.22900002 0.73300004 9994334
0.25700003 0.22900002 0.73200005 10783849
0.26250002 0.22800002 0.73250002 10454883
0.26700002 0.22800002 0.73199999 10191455
0.27150002 0.22800002 0.73150003 10256992
0.27700001 0.22700001 0.73200005 10388834
0.28250003 0.22600001 0.73250002 10585700
0.28666666 0.22566669 0.73166674 10652006
0.29200003 0.22500001 0.73100001 10455397
0.29500002 0.22500001 0.73000002 10061156
0.15900001 0.23400001 0.73400003 10850694
0.162 0.23400001 0.73300004 10390143
0.1665 0.23400001 0.73300004 10456190
0.17250001 0.23400001 0.73200005 10061432
0.177 0.23400001 0.73100001 10982532
0.18233335 0.23333335 0.73166662 10521725
0.18700001 0.23300001 0.73199999 9863537
0.19133334 0.23266667 0.73200005 10389622
0.19700001 0.23200001 0.73200005 9797227
0.2015 0.23200001 0.73200005 10652792
0.20750001 0.23200001 0.73100001 10981755
0.21166669 0.23066668 0.73266667 10060908
0.21725002 0.23125 0.73150003 10258544
0.22250001 0.2315 0.73150003 10916730
0.22666669 0.23166668 0.73200005 10521202
0.23200001 0.23100001 0.73200005 10587506
0.23650001 0.23100001 0.73150003 10719091
0.24100001 0.23100001 0.73000002 10587245
0.24650002 0.23100001 0.73000002 10257764
0.11750001 0.23900001 0.7335 10718585
0.12200001 0.23900001 0.73300004 10784380
0.12650001 0.23900001 0.73250008 10718076
0.13250001 0.23900001 0.73200005 10455930
0.13700001 0.23750001 0.73250002 10324345
0.1415 0.23775001 0.73225003 10588032
0.14700001 0.237 0.73166674 10324861
0.15200001 0.23600002 0.73200005 10455678
0.15700001 0.23600002 0.73100001 10718593
0.16100001 0.23600002 0.73000002 10850180
0.073000006 0.24400002 0.73400003 10191721
0.077500001 0.24400002 0.73400003 11047288
0.082000002 0.24400002 0.73300004 10586738
0.086500004 0.24400002 0.73250008 10520688
0.093000002 0.24300002 0.73233336 10126701
0.097000003 0.24200001 0.73199999 10850424
0.101 0.24166667 0.73200005 10455410
0.1075 0.24100001 0.73200005 10586742
0.112 0.24100001 0.73100001 10849916
0.11650001 0.24100001 0.73049998 10653563
0.12100001 0.24100001 0.73000002 10653051
0.049000002 0.24900001 0.73200005 10652011
0.052000001 0.24700001 0.73400003 10454378
0.056250002 0.248 0.73224998 10717806
0.062000006 0.24733335 0.73166674 10389100
0.067000002 0.24700001 0.73200005 11112825
0.071500003 0.24650002 0.73150003 11178875
0.077500001 0.24600001 0.73049998 10126187
0.082000002 0.24600001 0.73000002 11179386
-0.0060000001 0.25300002 0.73400003 9861726
-0.003 0.25300002 0.73400003 10585706
0.0015 0.25300002 0.7335 9664606
0.0075000003 0.25300002 0.73300004 9401433
0.012 0.25300002 0.73300004 9663833
0.0165 0.252 0.73200005 10519142
0.022500001 0.252 0.73150003 10255969
0.027000001 0.25099999 0.73250002 10256224
0.031750001 0.25099999 0.73224998 10453862
0.037 0.25133333 0.73100001 10190947
0.041666668 0.25066665 0.73200005 10519913
0.046000004 0.25 0.73300004 10585707
0.052000001 0.25 0.73200005 10651757
-0.037500001 0.259 0.73200005 10850935
-0.033 0.25749999 0.73250002 11246469
-0.028500002 0.25750002 0.73225003 11048573
-0.022500001 0.25700003 0.73150003 10784114
-0.018000001 0.25700003 0.73150003 10191979
-0.0135 0.25600001 0.73200005 10652016
-0.0075000003 0.25550002 0.73150003 9927781
-0.003 0.25500003 0.73100001 9664864
0.0015 0.25500003 0.73000002 10256746
0.0075000003 0.25500003 0.73000002 10190949
-0.097000003 0.264 0.73400003 11377549
-0.092500001 0.264 0.73400003 10982276
-0.088000007 0.264 0.73300004 11245705
-0.083499998 0.26350001 0.73250008 10390653
-0.077500001 0.26300001 0.73200005 11245705
-0.073000006 0.26300001 0.73100001 11113604
-0.068000004 0.26300001 0.73100001 10982275
-0.062666669 0.2606667 0.73300004 10850173
-0.058000002 0.26133338 0.73200005 10981758
-0.052500002 0.26100004 0.73150003 10652530
-0.048 0.26100004 0.73150003 10257252
-0.044 0.2606667 0.73200005 10519908
-0.141 0.26900002 0.73400003 11113599
-0.1365 0.26900002 0.7335 10851455
-0.132 0.26900002 0.73300004 11180421
-0.12900001 0.26900002 0.73300004 11180937
-0.1235 0.26800001 0.73300004 11049621
-0.11750001 0.26800001 0.73200005 10127991
-0.11150001 0.26750001 0.73200005 11246730
-0.10650001 0.26600003 0.73250002 10984076
-0.10350001 0.26600003 0.73250002 11641234
-0.098499998 0.26700002 0.73100001 11114633
-0.092500001 0.2665 0.73049998 10982790
-0.088000007 0.266 0.73000002 10324603
-0.17300001 0.27400002 0.73300004 10850168
-0.16800001 0.27350003 0.73250008 10587254
-0.16100001 0.27199998 0.73200005 10718839
-0.15700001 0.27200001 0.73100001 10324594
-0.15133335 0.27133334 0.73200005 10653046
-0.14750001 0.27100003 0.73250002 10192751
-0.14300001 0.27100003 0.73166674 10982268
-0.13700001 0.27100003 0.73000002 11180932
-0.13250001 0.27100003 0.73000002 10851712
-0.12800001 0.27100003 0.73000002 11180933
-0.20500001 0.27900001 0.73200005 11510151
-0.20200001 0.27900001 0.73200005 11312259
-0.19750002 0.27750003 0.73300004 10785658
-0.19333334 0.27733335 0.73200005 10916988
-0.18800001 0.27566668 0.73266667 10521459
-0.18333334 0.27633336 0.73133332 10653302
-0.17775001 0.27600002 0.73199999 10455923
-0.266 0.28400001 0.73300004 9863783
-0.2615 0.28400001 0.7335 9469024
-0.25600001 0.28400001 0.73400003 9008215
-0.252 0.28300002 0.73300004 10060904
-0.2475 0.28300002 0.73400003 9731938
-0.24200001 0.28200001 0.73300004 10192488
-0.23700002 0.28299999 0.73175001 9929059
-0.2315 0.28250003 0.73150003 9468509
-0.22766668 0.28166667 0.73200005 9534561
-0.223 0.28233334 0.73100001 10258539
-0.2175 0.28 0.73300004 10654585
-0.21200001 0.28 0.73300004 11181445
-0.20900001 0.28 0.73300004 11509897
-0.31600001 0.289 0.73400003 9469542
-0.31200001 0.289 0.73400003 9732969
-0.30900002 0.28800002 0.73400003 9338211
-0.3035 0.28800002 0.73400003 9865581
-0.29666668 0.28766665 0.73266667 9338210
-0.29133335 0.28833333 0.73133332 8943453
-0.28650001 0.287 0.73199999 9996140
-0.28350002 0.287 0.73199999 9404261
-0.27800003 0.28650004 0.73199999 9601383
-0.27166668 0.28566667 0.73233336 9403488
-0.26700002 0.28650001 0.73000002 9929833
-0.26200002 0.28600001 0.73000002 9863783
-0.25700003 0.28600001 0.73000002 9402975
-0.252 0.28500003 0.73000002 10521454
-0.24800001 0.28500003 0.73000002 9929318
-0.24350001 0.28500003 0.73000002 9995364
-0.347 0.29200003 0.7335 9010788
-0.34299999 0.29300001 0.73199999 9208680
-0.33833337 0.29266667 0.73133332 9208168
-0.3326667 0.29166666 0.73266667 9338986
-0.32733336 0.29166669 0.73133332 9142120
-0.32166669 0.29066667 0.73266667 9732970
-0.31650001 0.29100001 0.73000002 9535336
-0.31100002 0.29100001 0.73000002 9733227
-0.30800003 0.29100001 0.73100001 9140576
-0.30200002 0.29000002 0.73049998 9602156
-0.34800002 0.29500002 0.73000002 9207913
0.0015 -0.048 0.7385 9530214
0.0075000003 -0.048 0.73800004 9596266
0.012 -0.048 0.73800004 8478300
0.0165 -0.048 0.73900002 8280921
0.021000002 -0.048 0.73900002 8675423
-0.020000001 -0.042000003 0.73900002 9266270
-0.017000001 -0.042000003 0.73700005 9989993
-0.013 -0.044 0.73666668 10516336
-0.0075000003 -0.045000002 0.73550004 9661027
-0.003 -0.045000002 0.73500001 9332063
0.022500001 -0.045000002 0.73500001 8807004
0.027000001 -0.045000002 0.73600006 8741470
0.031500001 -0.045000002 0.73750007 8544348
0.037 -0.043500002 0.73750007 8281175
0.041000001 -0.042000003 0.73800004 8085598
-0.033500001 -0.036000002 0.73600006 8345687
-0.026000001 -0.039000001 0.73800004 5394007
-0.021500003 -0.039000001 0.73550004 6377305
0.044000003 -0.039000001 0.73500001 7427409
0.047000002 -0.039000001 0.73700005 5588297
0.0515 -0.036000002 0.73699999 4536640
-0.041000001 -0.033 0.73700005 10780277
0.056000002 -0.033 0.73700005 4273473
-0.048000004 -0.028000003 0.73699999 10845296
-0.044000003 -0.030000001 0.73600006 11174520
0.059000004 -0.030000001 0.73600006 5259077
0.062000003 -0.028500002 0.73699999 6441544
0.065000005 -0.028000001 0.73800004 7493977
-0.056000002 -0.022000002 0.73800004 11041393
-0.052500002 -0.023500001 0.73600006 11172720
0.068000004 -0.025 0.73600006 6967629
0.072000004 -0.023000002 0.73800009 6442055
-0.057333335 -0.018000001 0.73733336 10515818
0.073000006 -0.019000001 0.73500001 7033421
0.076500006 -0.017500002 0.73750007 5980990
-0.062000003 -0.011000001 0.73699999 9469048
-0.058000002 -0.013 0.73500001 9532261
0.081500009 -0.011500001 0.73750007 6310468
-0.064000003 -0.0070000002 0.73800004 7040377
0.082000002 -0.0070000002 0.73500001 6507078
-0.067999996 -0.0020000001 0.73800009 8416360
-0.064000003 -0.0040000002 0.73600006 6710896
0.086999997 -0.0025000002 0.73750007 5127483
0.48800004 -0.001 0.73500001 13686735
-0.07 0.0020000001 0.73600006 7233889
0.088000007 0.0020000001 0.73600006 4470582
0.48300001 0.0020000001 0.73500001 14278344
-0.073000006 0.0080000004 0.73700005 9333340
-0.07 0.0050000004 0.73500001 6313048
0.091000006 0.0080000004 0.73800004 3353389
0.47100002 0.0090000005 0.73600006 13883586
-0.076000005 0.012500001 0.73800004 8348504
0.091000006 0.011000001 0.73700005 3222834
0.46500003 0.012 0.73900002 14080705
-0.079000004 0.019000001 0.73700005 11236958
0.094000004 0.019000001 0.73600006 3288112
0.095000006 0.017000001 0.73900002 3157046
0.45600003 0.018000001 0.73700005 14343100
0.46000001 0.015000001 0.73700005 14277308
-0.079000004 0.022000002 0.73600006 11565151
0.45200002 0.022000002 0.73800004 14408632
-0.082000002 0.028000001 0.73900002 11500131
-0.079000004 0.026500002 0.73500001 11302238
0.097000003 0.026500002 0.73700005 4273205
0.44600001 0.028000001 0.73500001 14605482
-0.082000002 0.031000001 0.73900002 11171682
-0.079000004 0.032500003 0.73500001 10118483
0.097000003 0.031000001 0.73500001 3483946
0.44500002 0.031000001 0.73900002 14604962
-0.079000004 0.037 0.73600006 7620675
0.101 0.037 0.73900002 4666422
-0.079000004 0.041500002 0.73650002 4602948
0.101 0.041500002 0.7385 3877934
0.43100002 0.044000003 0.73600006 14735262
-0.082000002 0.049000002 0.73900002 10776667
-0.079000004 0.046000004 0.73500001 8607306
0.1 0.047500003 0.73700005 3483173
-0.082000002 0.052000001 0.73800004 11104862
0.1 0.052000001 0.73700005 3746086
0.42750001 0.052500002 0.73600006 15063181
-0.082000002 0.056500003 0.7385 10776667
0.1005 0.056500003 0.73750007 4469551
0.42500001 0.057000004 0.73900002 15128194
-0.079000004 0.0625 0.73550004 7819076
0.097000003 0.064000003 0.73500001 5783095
0.101 0.0625 0.7385 5849661
0.42400002 0.064000003 0.73700005 14996607
0.42500001 0.060000002 0.73800004 15062399
-0.079000004 0.067000002 0.73800004 10449242
0.097000003 0.067000002 0.73600006 5783352
0.42500001 0.067000002 0.73700005 15062136
-0.076000005 0.072000004 0.73500001 10120020
0.094000004 0.072000004 0.73500001 5453620
0.098000005 0.07 0.73800004 5651769
0.42400002 0.071500003 0.73600006 15061363
-0.076000005 0.075000003 0.73700005 9200464
0.095000006 0.077500001 0.73800004 5519669
0.259 0.075000003 0.73600006 14606036
0.30600002 0.076000005 0.73500001 13028806
0.42500001 0.077000007 0.73700005 14797929
-0.073000006 0.081 0.73700005 8280651
0.092000008 0.081 0.73600006 5388082
0.24400002 0.084000006 0.73800004 14341819
0.24700001 0.081 0.73800004 14474182
0.42750001 0.081500009 0.73700005 14007641
-0.07 0.087000005 0.73700005 6112060
0.089000002 0.087000005 0.73500001 5849400
0.092000008 0.085000001 0.73800004 4993838
0.33100003 0.086000003 0.73500001 11647137
0.43400002 0.087000005 0.73800004 12758354
0.43700001 0.087000005 0.73600006 12627027
-0.068000004 0.093000002 0.73700005 10054743
0.087500006 0.092000008 0.73700005 5388594
0.24000001 0.090000004 0.73700005 14274732
0.33900002 0.090000004 0.73700005 11843735
-0.065000005 0.099000007 0.73900002 8805705
-0.064000003 0.096000001 0.73500001 9265227
0.08200001 0.098000012 0.73600006 5650992
0.086000003 0.097000003 0.73900002 5519664
0.23800001 0.099000007 0.73900002 14470557
0.35100001 0.097000003 0.73900002 11908501
-0.062000003 0.10200001 0.73900002 9068622
0.077000007 0.10200001 0.73500001 6177077
0.080000006 0.10200001 0.73700005 5716782
-0.057500005 0.1065 0.73750007 8806219
0.073000006 0.10733334 0.73700005 5717042
0.077000007 0.105 0.73800004 6177075
0.2405 0.10700001 0.73650002 14272912
-0.053000003 0.11100001 0.73600006 7096118
-0.050000001 0.11400001 0.73700005 8871753
0.066500008 0.11250001 0.73650002 3812142
0.24400002 0.112 0.73600006 14403976
-0.047000002 0.11700001 0.73800004 8805191
-0.044000003 0.11700001 0.73500001 8083527
0.062000003 0.11700001 0.73600006 2826532
0.24700002 0.116 0.73766667 13812095
0.25 0.11800001 0.73500001 13811838
-0.042500004 0.12 0.73750007 6307895
-0.033500001 0.123 0.73700005 4732721
0.057500005 0.1215 0.73600006 3680551
0.25300002 0.12150001 0.73750007 13351289
0.35500002 0.12200001 0.73600006 10196331
-0.032000002 0.126 0.73900002 6569777
-0.027999999 0.12800001 0.73700005 8279613
0.046500001 0.12900001 0.73700005 6636343
0.052000001 0.126 0.73650002 5651505
0.25800002 0.125 0.73700005 12496493
0.26500002 0.12800001 0.73700005 12035681
-0.021500003 0.132 0.73700005 7752758
-0.017000001 0.132 0.73500001 7686965
0.037500001 0.132 0.73600006 6438704
0.042000003 0.132 0.73800004 6307630
0.273 0.13100001 0.73600006 12364387
-0.0135 0.13500001 0.7385 7160881
-0.0075000003 0.13500001 0.73700005 7095859
-0.003 0.13500001 0.73600006 7227187
0.0015 0.13500001 0.73650002 5584427
0.0060000001 0.13500001 0.73800004 4730150
0.022500001 0.13500001 0.73750007 6243385
0.027000001 0.13500001 0.73800004 6110509
0.031500001 0.13500001 0.73800004 6175791
0.28200001 0.13500001 0.73700005 11377238
0.32600001 0.13700001 0.73500001 10587724
0.33100003 0.13700001 0.73800004 10389837
0.32900003 0.21300001 0.73900002 10455661
0.333 0.21300001 0.73800004 9798249
0.33750004 0.21300001 0.73700005 10193523
0.34300002 0.21300001 0.73600006 10325363
0.34650001 0.21200001 0.73750007 9798505
0.35133338 0.21300001 0.73666668 9469027
0.35700002 0.21233334 0.73800009 10126698
0.36150002 0.21300001 0.73699999 10060904
0.36600003 0.21200001 0.73900002 9731936
0.37200001 0.21300001 0.73900002 10126948
0.377 0.21300001 0.73900002 8942673
0.38100001 0.21400002 0.73900002 10324582
0.38700002 0.21400002 0.73900002 10324580
0.30650002 0.21800001 0.7385 9929055
0.31100002 0.21800001 0.73700005 9403226
0.31733334 0.21700001 0.73733336 10323559
0.3215 0.21650001 0.73650002 10587246
0.3265 0.215 0.73650002 10193002
0.33200002 0.215 0.73500001 10390127
0.36400002 0.215 0.73500001 9666657
0.36900002 0.215 0.73600006 9205847
0.37200001 0.21600001 0.73600006 10390121
0.37600002 0.21600001 0.73600006 10259046
0.38200003 0.21650001 0.73600006 10127200
0.38800001 0.21700001 0.73600006 9864029
0.39200002 0.21600001 0.73750007 9534293
0.39650002 0.21650001 0.73800004 9139022
0.2525 0.22400001 0.73900002 10257249
0.257 0.22400001 0.73800004 10585958
0.26000002 0.22400001 0.73800004 10717290
0.27400002 0.22200002 0.73900002 10717542
0.27700001 0.22200002 0.73800004 10519393
0.28250003 0.22200002 0.73750007 10717285
0.287 0.22200002 0.73600006 10849130
0.292 0.22125001 0.73675001 10060641
0.29700002 0.22000001 0.73700005 10653036
0.30200002 0.22000001 0.73550004 9928540
0.30700001 0.22000001 0.73500001 8811084
0.16900001 0.22900002 0.73900002 10916487
0.17600001 0.22900002 0.73800004 10521982
0.19800001 0.22800002 0.73900002 9666158
0.20100001 0.22800002 0.73900002 9995120
0.20650001 0.22800002 0.7385 10192498
0.21250001 0.22800002 0.73750007 10521461
0.21700001 0.22800002 0.73700005 10127474
0.22150001 0.22800002 0.73650002 10916475
0.22700001 0.22800002 0.73600006 10916217
0.23200001 0.22725001 0.73725003 10324078
0.23650002 0.22800002 0.73699999 10521711
0.24133335 0.22733335 0.73699999 10521709
0.24700001 0.22700001 0.73700005 9863519
0.25150001 0.2265 0.73600006 10257506
0.25749999 0.22700001 0.73500001 10586725
0.264 0.22500001 0.73800004 10388580
0.26700002 0.22500001 0.73700005 10059612
0.27149999 0.22500001 0.73650002 10191197
0.27600002 0.22500001 0.73500001 10585186
0.28 0.22500001 0.73500001 10650979
0.12200001 0.23400001 0.73900002 10389106
0.1275 0.23400001 0.73900002 10060654
0.132 0.23400001 0.73900002 10521206
0.1365 0.23400001 0.73800004 10521467
0.14250001 0.23400001 0.73700005 10127482
0.147 0.23400001 0.73600006 10982534
0.15200001 0.23300001 0.73725003 10587522
0.15650001 0.23300001 0.73650002 10653572
0.16150001 0.23200001 0.73750007 10587523
0.16750002 0.23200001 0.73600006 9930102
0.17250001 0.23100001 0.73750007 10916998
0.17733334 0.23133333 0.73600006 10850690
0.18150002 0.23100001 0.73650002 10587004
0.18650001 0.23 0.73700005 10324087
0.19250001 0.23 0.73600006 10455158
0.19700001 0.23 0.73600006 10652790
0.20250002 0.23 0.73550004 9402979
0.20700002 0.23 0.73500001 10653302
0.087000005 0.23900001 0.7385 10192494
0.092000008 0.23900001 0.73800004 10719095
0.096500009 0.23900001 0.73750007 10389873
0.10300001 0.23833334 0.73733336 10520947
0.10700001 0.23800001 0.73699999 10521460
0.11150001 0.23800001 0.73650002 10850425
0.11750001 0.23650002 0.73700005 10783863
0.12200001 0.23600002 0.73600006 10652791
0.12650001 0.23600002 0.73550004 10323828
0.13250001 0.23650002 0.73500001 10389623
0.0625 0.24300002 0.73750007 10586479
0.067000002 0.24300002 0.73699999 11047288
0.071000002 0.24266668 0.73699999 10520687
0.077500001 0.24200001 0.73700005 11047031
0.082000002 0.24200001 0.73700005 8941655
0.086500004 0.24200001 0.73550004 10521202
0.091000006 0.24200001 0.73500001 8350547
0.018000001 0.24800001 0.73900002 9269075
0.022000002 0.24800001 0.73900002 9729882
0.026500002 0.24800001 0.73750007 10322533
0.032500003 0.24800001 0.73700005 10322275
0.037 0.24700001 0.73600006 9533017
0.041999999 0.24633335 0.73700005 10388585
0.047499999 0.24600001 0.73675001 10717550
0.052000001 0.245 0.73800004 10126180
0.056500003 0.245 0.73700005 10849135
0.064000003 0.245 0.73600006 10783857
-0.033 0.25400001 0.73700005 11049348
-0.028500002 0.25400001 0.73700005 10653298
-0.022 0.25333336 0.73700005 10915186
-0.018000001 0.25300002 0.73750007 10651758
-0.013500001 0.25200003 0.73650002 10388585
-0.0080000004 0.25166669 0.73666668 10059362
-0.003 0.25100002 0.73700005 10914669
0.0015 0.25100002 0.73700005 9927775
0.0075000003 0.25050002 0.73650002 9532765
0.012 0.25 0.73600006 8677712
0.0165 0.25050002 0.73600006 9467226
0.022500001 0.25 0.73500001 9795931
-0.087500006 0.259 0.73900002 10521727
-0.082000002 0.259 0.73900002 11442315
-0.077500001 0.259 0.73900002 10719364
-0.073000006 0.259 0.73900002 10718848
-0.068499997 0.25800002 0.73800004 11047555
-0.0625 0.25800002 0.73800004 10586998
-0.056500003 0.25800002 0.73700005 10520944
-0.052000001 0.25800002 0.73700005 10585445
-0.047000002 0.25600001 0.73750007 10388836
-0.043000001 0.25633335 0.73666668 10521453
-0.037500001 0.25600001 0.73650002 11114623
-0.1275 0.264 0.73900002 11049358
-0.123 0.264 0.73900002 8616055
-0.11850001 0.264 0.73900002 10785406
-0.112 0.26300001 0.7385 11378318
-0.10700001 0.26300001 0.73800004 11180940
-0.10250001 0.26300001 0.73800004 10917255
-0.096500009 0.26200002 0.73700005 11048585
-0.092000008 0.26200002 0.73700005 10785155
-0.088000007 0.26200002 0.73600006 11311499
-0.083499998 0.26100001 0.73550004 10850948
-0.077500001 0.26100001 0.73500001 10784899
-0.073000006 0.26100001 0.73500001 10850947
-0.068499997 0.26100001 0.73500001 10587517
-0.171 0.26900002 0.73900002 10521717
-0.16800001 0.26900002 0.73900002 9797738
-0.16250001 0.26850003 0.73800004 10193011
-0.15800001 0.26800001 0.73800004 11245439
-0.153 0.26800001 0.73800004 10784888
-0.14650001 0.26750001 0.73700005 10982523
-0.142 0.26700002 0.73700005 10917502
-0.13700001 0.26700002 0.73700005 11246212
-0.132 0.26700002 0.73700005 11048576
-0.1275 0.266 0.73600006 10852233
-0.123 0.266 0.73600006 10721689
-0.118 0.26550001 0.73550004 10456700
-0.11150001 0.26500002 0.73500001 11509390
