# .PCD v0.7 - Point Cloud Data file format
VERSION 0.7
FIELDS x y z rgb
SIZE 4 4 4 4
TYPE F F F U
COUNT 1 1 1 1
WIDTH 1222
HEIGHT 1
VIEWPOINT 0 0 0 1 0 0 0
POINTS 1222
DATA ascii
0.17500001 -0.029000001 1.149 7167585
0.18200001 -0.029000001 1.1475 7299686
0.18900001 -0.029000001 1.146 7760496
0.193 -0.029000001 1.1450001 7365482
0.19800001 -0.029000001 1.1450001 7562863
0.060000002 -0.024 1.146 6774618
0.12900001 -0.025 1.149 6642011
0.133 -0.025 1.149 6510680
0.13800001 -0.025 1.148 6707804
0.142 -0.025 1.148 6905696
0.147 -0.025 1.1470001 6970976
0.15100001 -0.025 1.1470001 6839390
0.156 -0.025 1.146 7102562
0.16000001 -0.025 1.1450001 7168357
-0.27800003 -0.0060000001 1.1470001 15124903
-0.28800002 0.003 1.149 10122587
-0.28300002 0.003 1.146 9531219
-0.31300002 0.0080000004 1.149 10122330
-0.30700001 0.0080000004 1.148 9596243
-0.30200002 0.0080000004 1.1470001 9332301
-0.29700002 0.0080000004 1.1450001 9793622
-0.35200003 0.012 1.149 10319966
-0.347 0.012 1.148 10451551
-0.34200001 0.012 1.148 9991001
-0.33700001 0.012 1.1470001 9990487
-0.33200002 0.012 1.1470001 10450782
-0.32700002 0.012 1.146 9858644
-0.32100001 0.012 1.1450001 10056024
-0.40800002 0.017000001 1.149 11111281
-0.40300003 0.017000001 1.148 10583909
-0.39700001 0.017000001 1.1470001 10847596
-0.39200002 0.017000001 1.1470001 9268818
-0.38700002 0.017000001 1.146 10584937
-0.38200003 0.017000001 1.1470001 11175532
-0.377 0.017000001 1.1470001 10583652
-0.37200001 0.017000001 1.1470001 11043946
-0.36600003 0.017000001 1.146 10714981
-0.36100003 0.017000001 1.1450001 10978153
-0.43400002 0.022000002 1.149 10913132
-0.42800003 0.022000002 1.1470001 11242354
-0.42200002 0.022000002 1.1450001 10452838
-0.72900003 0.034000002 1.149 10588535
-0.72300005 0.034000002 1.149 10587760
-0.71600002 0.034000002 1.149 10390127
-0.70900005 0.034000002 1.148 9929578
-0.70400006 0.034000002 1.149 9929065
-0.69700003 0.034000002 1.149 10258289
-0.69100004 0.034000002 1.149 10521464
-0.76700002 0.039000001 1.146 10126694
-0.76000005 0.039000001 1.146 10192228
-0.75300002 0.039000001 1.1450001 10521965
-0.74600005 0.039000001 1.1450001 10390898
-0.68300003 0.039000001 1.146 9400416
-0.67800003 0.039000001 1.148 9597539
-0.83000004 0.040000003 1.148 10324588
-0.82300001 0.040000003 1.148 10127208
-0.81600004 0.040000003 1.148 10258795
-0.80900002 0.040000003 1.148 10455661
-0.80200005 0.040000003 1.1470001 10521709
-0.79500002 0.040000003 1.1470001 10455659
-0.78800005 0.040000003 1.1470001 10323558
-0.78100002 0.040000003 1.1470001 10586731
-0.77400005 0.040000003 1.1470001 10389352
-0.67700005 0.044000003 1.146 10782067
-0.32300001 -0.76600003 1.1520001 7045279
-0.32300001 -0.75900006 1.1520001 7110813
-0.32300001 -0.75400001 1.154 5462886
-0.32700002 -0.74700004 1.153 5265510
-0.33700001 -0.74000001 1.1500001 6581124
-0.34200001 -0.73400003 1.151 8096420
-0.347 -0.72800004 1.1500001 8426419
-0.35200003 -0.72200006 1.151 8230068
-0.35700002 -0.71600002 1.1500001 8230067
-0.35700002 -0.71200001 1.154 8295858
-0.36100003 -0.71000004 1.1500001 8361139
-0.36100003 -0.70400006 1.1520001 8426932
-0.36600003 -0.69800001 1.151 8361137
-0.37100002 -0.69200003 1.1500001 8492725
-0.37100002 -0.68700004 1.154 8492725
-0.37600002 -0.68100005 1.1520001 8426932
-0.38000003 -0.67500001 1.1520001 8361396
-0.38500002 -0.66800004 1.151 8492725
-0.38500002 -0.66400003 1.154 8361139
-0.39000002 -0.65800005 1.153 8295859
-0.39500001 -0.65100002 1.1520001 8361653
-0.39900002 -0.64500004 1.151 8492725
-0.40000001 -0.64100003 1.154 8426932
-0.40400001 -0.63700008 1.1515 8426932
-0.40800002 -0.62800002 1.151 8492210
-0.41300002 -0.62200004 1.151 8492212
-0.41300002 -0.61700004 1.153 8492212
-0.41800001 -0.611 1.1520001 8229038
-0.42300001 -0.60600001 1.1520001 8558005
-0.42300001 -0.60100001 1.154 8492210
-0.42700002 -0.59900004 1.1500001 8558005
-0.42700002 -0.59400004 1.1520001 8426674
-0.43200001 -0.588 1.151 8426932
-0.43200001 -0.583 1.153 8558005
-0.43700001 -0.57800001 1.1520001 8558005
-0.44100001 -0.57200003 1.151 8492212
-0.44100001 -0.56700003 1.153 8492212
-0.44600001 -0.56100005 1.1520001 8492212
-0.45100003 -0.55600005 1.1520001 8492212
-0.45100003 -0.551 1.154 8492212
-0.45500001 -0.54900002 1.1500001 8558005
-0.45600003 -0.54500002 1.153 8492212
-0.46000001 -0.53900003 1.151 8557235
-0.46000001 -0.53400004 1.154 8557492
-0.46500003 -0.528 1.1520001 8623028
-0.46900001 -0.52200001 1.1500001 8491696
-0.47000003 -0.51800001 1.153 8426417
-0.47400004 -0.51200002 1.1520001 8557235
-0.47900003 -0.50700003 1.151 8557489
-0.47400004 -0.50700003 1.154 8557235
-0.47900003 -0.50200003 1.153 8360878
-0.72600001 -0.49700001 1.1500001 11912395
-0.48300001 -0.49600002 1.151 8360878
-0.72700006 -0.49200001 1.153 11780809
-0.48400003 -0.49100003 1.153 8557489
-0.48800004 -0.48500001 1.1520001 8491696
-0.49250001 -0.47700003 1.1515 8557488
-0.48800004 -0.48000002 1.154 8491696
-0.4975 -0.46700001 1.1525 8229037
-0.70900005 -0.46100003 1.154 11911880
-0.50200003 -0.45800003 1.151 8491442
-0.50700003 -0.45300001 1.1500001 8491696
-0.50300002 -0.45400003 1.154 8491696
-0.69900006 -0.44700003 1.1500001 11846341
-0.50700003 -0.44900003 1.153 8491696
-0.69900006 -0.44200003 1.1520001 11846087
-0.51100004 -0.44200003 1.1500001 8360108
-0.51200002 -0.43800002 1.153 8229038
-0.51700002 -0.43300003 1.1520001 8294317
-0.69200003 -0.43000001 1.154 11846600
-0.52100003 -0.42700002 1.1500001 8294574
-0.51700002 -0.42800003 1.154 8425903
-0.52200001 -0.42300001 1.153 8294831
-0.68400002 -0.41800001 1.154 11715012
-0.52600002 -0.41700003 1.151 8425901
-0.53100002 -0.41200003 1.1500001 8294317
-0.52700001 -0.41200003 1.154 8294317
-0.67600006 -0.40600002 1.154 11977159
-0.53200001 -0.40700001 1.153 8425390
-0.53600001 -0.40200001 1.151 8425388
-0.53600001 -0.39700001 1.153 8425390
-0.66700006 -0.39300001 1.1520001 11977157
-0.54000002 -0.39100003 1.1500001 8359596
-0.66700006 -0.38800001 1.153 11977157
-0.54100001 -0.38600001 1.153 8294317
-0.546 -0.38100001 1.1520001 8293802
-0.66000003 -0.37600002 1.153 12042437
-0.551 -0.37600002 1.151 8161956
-0.551 -0.37100002 1.153 8425131
-0.65200001 -0.36900002 1.151 11911106
-0.55600005 -0.36600003 1.1520001 8359084
-0.55600005 -0.36100003 1.154 8359084
-0.64500004 -0.35800001 1.153 11911617
-0.56100005 -0.35600001 1.1520001 8293291
-0.56 -0.36000001 1.1500001 8293290
-0.56300002 -0.35050002 1.1520001 8227752
-0.63700002 -0.34600002 1.151 11516607
-0.56600004 -0.34500003 1.1520001 8293545
-0.57050002 -0.338 1.1515 8228008
-0.63000005 -0.33000001 1.153 11252924
-0.57500005 -0.33000001 1.151 8293543
-0.58100003 -0.32000002 1.1520001 8162470
-0.57600003 -0.32500002 1.153 8227752
-0.62100005 -0.31800002 1.1500001 10397875
-0.58500004 -0.31500003 1.1500001 8096423
-0.58100003 -0.31600001 1.154 8096423
-0.58600003 -0.31 1.153 8358566
-0.60900003 -0.30100003 1.1520001 8293028
-0.60200006 -0.30000001 1.1500001 8227235
-0.597 -0.30000001 1.1520001 8293028
-0.59150004 -0.30300003 1.1530001 8227235
-0.60300004 -0.296 1.154 8293028
-0.597 -0.296 1.154 8226980
0.82100004 -0.087000005 1.153 6974049
0.82700002 -0.087000005 1.151 6841692
0.78700006 -0.081 1.154 6841696
0.79200006 -0.081 1.151 7170661
0.79800004 -0.081 1.1500001 7236454
0.23200001 -0.057000004 1.151 3552835
0.22800002 -0.048 1.153 7960193
0.185 -0.034000002 1.154 7628138
0.192 -0.034000002 1.1535001 7627627
0.19900002 -0.034000002 1.153 7365482
0.20400001 -0.034000002 1.1520001 7628141
0.208 -0.034000002 1.151 7891058
0.21300001 -0.034000002 1.1500001 8088180
0.148 -0.029000001 1.154 6642524
0.15200001 -0.029000001 1.154 6773597
0.15700001 -0.029000001 1.153 7430757
0.16100001 -0.029000001 1.1520001 7035999
0.16600001 -0.029000001 1.151 7036769
0.17 -0.029000001 1.1500001 6839388
0.064000003 -0.025 1.1500001 6906977
0.069000006 -0.025 1.1520001 6841184
0.074000001 -0.025 1.151 7104356
0.078000002 -0.025 1.151 6709597
0.083000004 -0.025 1.151 6643805
0.087000005 -0.025 1.151 6709598
0.092000008 -0.025 1.151 6249047
0.097000003 -0.025 1.151 5854035
0.101 -0.025 1.151 6577758
0.10600001 -0.025 1.151 6906208
0.11000001 -0.025 1.151 6840414
0.115 -0.025 1.151 6708828
0.12200001 -0.025 1.1505001 6642522
-0.27900001 -0.011000001 1.151 15126437
-0.28400001 -0.0020000001 1.1520001 9596755
-0.30400002 0.003 1.154 8806727
-0.29900002 0.003 1.1520001 10188380
-0.294 0.003 1.151 9859672
-0.33900002 0.0080000004 1.154 10714723
-0.33400002 0.0080000004 1.154 9398864
-0.32900003 0.0080000004 1.153 10385502
-0.32300001 0.0080000004 1.1520001 9990230
-0.31800002 0.0080000004 1.1500001 9924951
-0.40000001 0.012 1.154 9531221
-0.39400002 0.012 1.154 11571061
-0.38900003 0.012 1.154 10913131
-0.384 0.012 1.154 10912616
-0.37900001 0.012 1.154 11307374
-0.37400001 0.012 1.154 10649188
-0.36800003 0.012 1.1520001 10912360
-0.36300001 0.012 1.1520001 11043946
-0.35800001 0.012 1.151 10517602
-0.43100002 0.017000001 1.154 10057823
-0.42500001 0.017000001 1.1520001 10649703
-0.41900003 0.017000001 1.151 10189920
-0.41400003 0.017000001 1.1500001 11110768
-0.68800002 0.029000001 1.154 10653820
-0.77200001 0.034000002 1.153 10323816
-0.76500005 0.034000002 1.153 10390640
-0.75800002 0.034000002 1.1520001 10719350
-0.75000006 0.034000002 1.151 10983294
-0.74400002 0.034000002 1.151 11049086
-0.73600006 0.034000002 1.1500001 10785915
-0.68500006 0.034000002 1.1500001 10059373
-0.68000001 0.034000002 1.1520001 9598052
-0.67400002 0.034000002 1.153 9334110
-0.78600001 0.035 1.154 10323559
-0.77900004 0.035 1.154 10455145
-0.67300004 0.039000001 1.151 9465696
-0.31900001 -0.76700002 1.1550001 6979486
-0.31400001 -0.76900005 1.159 6979486
-0.31800002 -0.76000005 1.1550001 7045278
-0.31300002 -0.76200002 1.159 7110297
-0.31800002 -0.75500005 1.1570001 3883081
-0.32300001 -0.74900001 1.1580001 5791599
-0.333 -0.74200004 1.1550001 6779531
-0.32800001 -0.74400002 1.159 7174546
-0.33800003 -0.73600006 1.1550001 8360108
-0.34300002 -0.73100001 1.156 8361397
-0.34800002 -0.72400004 1.1550001 8361140
-0.35200003 -0.71800005 1.1550001 8230067
-0.35300002 -0.71400005 1.159 8230321
-0.35700002 -0.70700002 1.1570001 8361139
-0.36200002 -0.70000005 1.1550001 8426930
-0.36200002 -0.69600004 1.159 8492725
-0.36700001 -0.69400001 1.1550001 8492725
-0.36700001 -0.68900001 1.1580001 8426932
-0.37100002 -0.68200004 1.156 8361396
-0.37600002 -0.67600006 1.1550001 8558005
-0.37200001 -0.67800003 1.159 8492724
-0.37600002 -0.67200005 1.159 8492211
-0.38100001 -0.67000002 1.1550001 8558005
-0.38100001 -0.66500002 1.1580001 8426932
-0.38600001 -0.65900004 1.1570001 8426932
-0.39000002 -0.65300006 1.156 8295860
-0.39500001 -0.64700001 1.1550001 8426931
-0.39000002 -0.648 1.1580001 8426930
-0.39500001 -0.64200002 1.1580001 8295860
-0.40000001 -0.63600004 1.1570001 8361139
-0.40500003 -0.63000005 1.156 8492212
-0.40700001 -0.62450004 1.1570001 8426418
-0.40900001 -0.61900002 1.1570001 8426419
-0.41400003 -0.61300004 1.156 8426417
-0.41900003 -0.60700005 1.156 8426674
-0.41900003 -0.60300004 1.159 8492212
-0.42300001 -0.59600002 1.156 8558003
-0.42800003 -0.59000003 1.1550001 8295346
-0.42400002 -0.59100002 1.159 8492212
-0.42800003 -0.58500004 1.1570001 8492212
-0.43200001 -0.57900006 1.156 8426676
-0.43700001 -0.57300001 1.1550001 8623282
-0.43300003 -0.574 1.159 8623282
-0.43700001 -0.56800002 1.1570001 8492212
-0.44200003 -0.56200004 1.156 8426419
-0.44600001 -0.55600005 1.1550001 8426419
-0.44200003 -0.55800003 1.159 8426419
-0.44700003 -0.55200005 1.1580001 8492212
-0.45200002 -0.546 1.1570001 8360626
-0.45600003 -0.54100001 1.156 8557749
-0.45600003 -0.53600001 1.1580001 8426419
-0.46100003 -0.52700007 1.1575 8491955
-0.46500003 -0.52400005 1.1550001 8360626
-0.46500003 -0.51900005 1.1570001 8360626
-0.47000003 -0.51300001 1.156 8623028
-0.47000003 -0.50800002 1.1580001 8557235
-0.47500002 -0.50300002 1.1570001 8491696
-0.47700003 -0.4975 1.1570001 8426159
-0.47900003 -0.49200001 1.1570001 8557489
-0.72700006 -0.48700002 1.1550001 11780807
-0.48400003 -0.48600003 1.1550001 8491696
-0.48000002 -0.48700002 1.159 8426160
-0.72700006 -0.48100004 1.156 11780807
-0.48400003 -0.48200002 1.1580001 8360624
-0.48900002 -0.47600001 1.1570001 8491696
-0.49300003 -0.47000003 1.1550001 8360626
-0.48900002 -0.47100002 1.159 8360626
-0.71800005 -0.46900001 1.156 11715016
-0.49400002 -0.46600002 1.1580001 8491442
-0.49800003 -0.46000001 1.156 8425905
-0.70900005 -0.45500001 1.1550001 11846342
-0.49900001 -0.45500001 1.1580001 8294576
-0.50349998 -0.44750002 1.158 8425903
-0.50800002 -0.44400004 1.1550001 8294316
-0.50800002 -0.43900001 1.1570001 8294574
-0.51300001 -0.43400002 1.156 8229038
-0.51300001 -0.42900002 1.159 8360110
-0.51800001 -0.42300001 1.1570001 8360367
-0.52200001 -0.41800001 1.1550001 8360110
-0.51800001 -0.41900003 1.159 8359854
-0.523 -0.41300002 1.1580001 8360110
-0.52700001 -0.40800002 1.156 8359597
-0.53200001 -0.40200001 1.1550001 8425390
-0.528 -0.40300003 1.159 8425390
-0.53300005 -0.39800003 1.1580001 8294315
-0.537 -0.39200002 1.1550001 8359597
-0.53800005 -0.38800001 1.1580001 8162731
-0.54200006 -0.38200003 1.1570001 8359595
-0.54700005 -0.377 1.1550001 8359337
-0.54800004 -0.37200001 1.1580001 8293545
-0.65400004 -0.36600003 1.1570001 12042436
-0.55200005 -0.36700001 1.156 8293802
-0.55300003 -0.36200002 1.159 8293291
-0.55700004 -0.35600001 1.156 8293291
-0.648 -0.35500002 1.159 11977155
-0.55700004 -0.35200003 1.1580001 8293545
-0.56200004 -0.34600002 1.156 8293545
-0.64100003 -0.34300002 1.159 11779265
-0.56700003 -0.34100002 1.1550001 8227752
-0.56300002 -0.34200001 1.159 8293545
-0.56700003 -0.33600003 1.1570001 8096423
-0.57200003 -0.33100003 1.1550001 8228008
-0.56800002 -0.33100003 1.159 8161959
-0.57200003 -0.32600001 1.1570001 8228263
-0.57700002 -0.32100001 1.156 8161957
-0.57700002 -0.31600001 1.1580001 8031143
-0.58200002 -0.31100002 1.1570001 8226980
-0.61700004 -0.30800003 1.1550001 8095387
-0.58700001 -0.30600002 1.156 8293542
-0.588 -0.30100003 1.159 8424614
-0.611 -0.29800001 1.1580001 8358820
-0.59300005 -0.296 1.1570001 8358821
-0.60400003 -0.29200003 1.1570001 8292774
-0.59800005 -0.29100001 1.1570001 8161956
-0.59400004 -0.29100001 1.159 8292773
0.83200002 -0.093000002 1.1580001 6842203
0.79700005 -0.086000003 1.1580001 6841696
0.80300003 -0.087000005 1.1570001 7170661
0.81000006 -0.087000005 1.156 7104866
0.81700003 -0.087000005 1.156 6579292
0.78200006 -0.081 1.156 6512987
0.22400001 -0.044000003 1.1570001 7301228
0.051000003 -0.038000003 1.1570001 7235425
0.21200001 -0.039000001 1.1585001 7627627
0.21800001 -0.039000001 1.1550001 7628140
0.056000002 -0.034000002 1.1580001 7235423
0.16700001 -0.034000002 1.159 6904924
0.17200001 -0.034000002 1.1580001 7036767
0.17600001 -0.034000002 1.156 7430757
0.18100001 -0.034000002 1.156 7627881
0.060000002 -0.029000001 1.156 6971999
0.067000002 -0.029000001 1.1585001 6972767
0.074000001 -0.029000001 1.159 6774620
0.079000004 -0.029000001 1.159 6906206
0.083000004 -0.029000001 1.1580001 6643805
0.088000007 -0.029000001 1.1580001 5920083
0.092000008 -0.029000001 1.1580001 6578271
0.097000003 -0.029000001 1.1580001 6775391
0.10200001 -0.029000001 1.159 7037793
0.10600001 -0.029000001 1.1580001 6972000
0.11100001 -0.029000001 1.1580001 6774621
0.116 -0.029000001 1.1580001 6642522
0.12 -0.029000001 1.1570001 6445143
0.127 -0.029000001 1.1565001 6444886
0.134 -0.029000001 1.156 6642009
0.13900001 -0.029000001 1.1550001 6642266
0.14300001 -0.029000001 1.1550001 7036767
-0.29000002 -0.020000001 1.156 11176302
-0.28500003 -0.016000001 1.1570001 10651494
-0.28500003 -0.0060000001 1.1570001 9990230
-0.30100003 -0.0020000001 1.159 10122587
-0.29500002 -0.0020000001 1.1580001 9859414
-0.29000002 -0.0020000001 1.156 9662035
-0.32250002 0.003 1.158 10122073
-0.31500003 0.003 1.156 9398863
-0.30900002 0.003 1.1550001 10187867
-0.36500001 0.0080000004 1.159 10583650
-0.36000001 0.0080000004 1.1570001 10319965
-0.354 0.0080000004 1.156 10319965
-0.34900001 0.0080000004 1.1550001 10253402
-0.34400001 0.0080000004 1.1550001 10056793
-0.42700002 0.013 1.159 10583908
-0.42200002 0.013 1.1580001 11307631
-0.41600001 0.013 1.1570001 11505525
-0.41100001 0.013 1.156 10649704
-0.40500003 0.013 1.1550001 10847082
-0.44800001 0.017000001 1.159 10912623
-0.44200003 0.017000001 1.1570001 10716010
-0.43600002 0.017000001 1.1550001 10979183
-0.76200002 0.029000001 1.159 10654071
-0.75500005 0.029000001 1.1580001 10851450
-0.74700004 0.029000001 1.1570001 10916988
-0.74000001 0.029000001 1.156 10785658
-0.73400003 0.029000001 1.156 10456692
-0.72700006 0.029000001 1.156 10324588
-0.72100002 0.029000001 1.156 10784887
-0.71400005 0.029000001 1.1550001 10061165
-0.708 0.029000001 1.156 9995371
-0.70100003 0.029000001 1.156 9864300
-0.69500005 0.029000001 1.156 10127475
-0.68200004 0.029000001 1.1550001 10454390
-0.67600006 0.029000001 1.156 9071968
-0.671 0.029000001 1.1580001 9334371
-0.67000002 0.034000002 1.156 9663334
-0.83800006 0.035 1.1580001 10193770
-0.82900006 0.035 1.156 10127206
-0.82200003 0.035 1.156 10456172
-0.81500006 0.035 1.156 10784881
-0.80800003 0.035 1.156 10324329
-0.80000001 0.035 1.1550001 10258535
-0.79300004 0.035 1.1550001 10389351
-0.30900002 -0.77000004 1.161 6913693
-0.30400002 -0.77100003 1.164 6978972
-0.30900002 -0.76400006 1.1620001 7110040
-0.31300002 -0.75700003 1.161 3818575
-0.31800002 -0.75100005 1.161 6120567
-0.324 -0.74600005 1.1630001 7569820
-0.33400002 -0.73900002 1.1600001 8425903
-0.32900003 -0.74000001 1.164 8294317
-0.33900002 -0.73300004 1.1600001 8295603
-0.33400002 -0.73400003 1.164 8229810
-0.34300002 -0.72700006 1.1600001 8426677
-0.33900002 -0.72800004 1.164 8295091
-0.34800002 -0.72100002 1.1600001 8164274
-0.34400001 -0.72200006 1.164 8295860
-0.34900001 -0.71600002 1.1630001 8361139
-0.35300002 -0.70900005 1.161 8426932
-0.35800001 -0.70200002 1.1600001 8361137
-0.35300002 -0.70400006 1.164 8361137
-0.35800001 -0.69700003 1.1630001 8426930
-0.36300001 -0.69100004 1.1620001 8361139
-0.36300001 -0.68600005 1.164 8361137
-0.36700001 -0.68400002 1.1600001 8426930
-0.36700001 -0.67900002 1.1630001 8492723
-0.37200001 -0.67300004 1.1630001 8426930
-0.377 -0.66700006 1.1620001 8361139
-0.38100001 -0.66100001 1.161 8426932
-0.38200003 -0.65600002 1.164 8230068
-0.38600001 -0.65500003 1.1600001 8295861
-0.38600001 -0.65000004 1.1630001 8361137
-0.39100003 -0.64400005 1.1620001 8426932
-0.39600003 -0.63800001 1.161 8492212
-0.398 -0.63200003 1.1620001 8426419
-0.40000001 -0.62600005 1.1620001 8426419
-0.40000001 -0.62100005 1.164 8426419
-0.40500003 -0.61800003 1.1625 8426419
-0.41000003 -0.61400002 1.1600001 8426417
-0.41500002 -0.60900003 1.1600001 8426932
-0.41000003 -0.61000001 1.164 8426675
-0.41500002 -0.60400003 1.1630001 8426419
-0.41900003 -0.597 1.1600001 8426419
-0.42000002 -0.59300005 1.164 8558003
-0.42400002 -0.58600003 1.161 8426419
-0.42800003 -0.58000004 1.1600001 8426932
-0.42400002 -0.58200002 1.164 8361139
-0.42800003 -0.57500005 1.1620001 8491955
-0.43300003 -0.56900001 1.161 8426419
-0.43800002 -0.56400001 1.1600001 8426418
-0.43400002 -0.565 1.164 8426419
-0.43800002 -0.55900002 1.1630001 8361137
-0.44200003 -0.55300003 1.161 8426419
-0.44700003 -0.54800004 1.161 8492212
-0.45200002 -0.54200006 1.1600001 8558003
-0.44800001 -0.54300004 1.1630001 8426417
-0.45200002 -0.537 1.1620001 8426419
-0.45700002 -0.53100002 1.1600001 8557235
-0.45200002 -0.53100002 1.1630001 8491442
-0.45700002 -0.52600002 1.1630001 8491699
-0.46100003 -0.52000004 1.161 8426419
-0.46200001 -0.51500005 1.1630001 8491699
-0.46600002 -0.51200002 1.161 8557235
-0.73900002 -0.50200003 1.1600001 11715530
-0.47100002 -0.50300002 1.1600001 8557489
-0.74000001 -0.49700001 1.1630001 11780809
-0.47100002 -0.49900001 1.1630001 8491696
-0.47500002 -0.49300003 1.161 8491696
-0.47600001 -0.48900002 1.164 8360626
-0.48000002 -0.48200002 1.161 8557489
-0.48500001 -0.47700003 1.161 8360626
-0.48600003 -0.47300002 1.164 8294833
-0.49000001 -0.46700001 1.1620001 8425649
-0.49400002 -0.46100003 1.1600001 8425649
-0.49000001 -0.46200001 1.164 8294833
-0.49500003 -0.45600003 1.1630001 8360626
-0.71200001 -0.45200002 1.161 11846087
-0.49900001 -0.45100003 1.161 8425649
-0.5 -0.44600001 1.1630001 8425649
-0.70600003 -0.44100001 1.164 11911879
-0.50400001 -0.44000003 1.1620001 8360109
-0.509 -0.43500003 1.1600001 8228779
-0.505 -0.43600002 1.164 8294315
-0.69600004 -0.42700002 1.1620001 11846087
-0.509 -0.43000001 1.1630001 8360110
-0.514 -0.42400002 1.161 8360110
-0.68800002 -0.41500002 1.161 11845828
-0.51500005 -0.42000002 1.164 8425390
-0.68900001 -0.41000003 1.164 11977159
-0.51900005 -0.41400003 1.1620001 8294319
-0.52400005 -0.40900001 1.161 8293804
-0.68000001 -0.40300003 1.161 11977157
-0.52400005 -0.40400001 1.1630001 8293805
-0.52900004 -0.39900002 1.1620001 8294315
-0.53300005 -0.39300001 1.1600001 8359597
-0.52900004 -0.39400002 1.164 8425390
-0.53400004 -0.38900003 1.1630001 8294315
-0.53800005 -0.38300002 1.161 8359338
-0.54300004 -0.37800002 1.1600001 8359338
-0.53900003 -0.37900001 1.164 8293291
-0.54400003 -0.37300003 1.1620001 8228011
-0.54900002 -0.36800003 1.161 8293547
-0.54900002 -0.36300001 1.1630001 8293547
-0.55300003 -0.35700002 1.161 8359084
-0.55300003 -0.35200003 1.1620001 8293545
-0.55800003 -0.347 1.161 8293801
-0.55900002 -0.34200001 1.1630001 8227751
-0.56400001 -0.33700001 1.1620001 8227752
-0.56400001 -0.33200002 1.164 8227752
-0.56900001 -0.32700002 1.1620001 8161959
-0.57300001 -0.32200003 1.1600001 8227752
-0.56900001 -0.32200003 1.164 8227752
-0.62800002 -0.31600001 1.1630001 10858678
-0.574 -0.317 1.1620001 8096166
-0.57900006 -0.31200001 1.161 8292773
-0.58200002 -0.30650002 1.1620001 8292773
-0.62 -0.30400002 1.1620001 8029077
-0.58500004 -0.30200002 1.1630001 8358566
-0.58900005 -0.29700002 1.161 8358565
-0.61300004 -0.29300001 1.1620001 8161692
-0.59000003 -0.29200003 1.1630001 8292773
-0.60600001 -0.287 1.161 8292773
-0.60000002 -0.287 1.161 8162210
-0.59500003 -0.287 1.1620001 8358566
-0.60100001 -0.28200001 1.164 8161957
0.81500006 -0.093000002 1.1630001 6842464
0.82100004 -0.093000002 1.1620001 6974047
0.82700002 -0.093000002 1.1600001 7105118
0.78700006 -0.087000005 1.164 6974050
0.79300004 -0.087000005 1.1620001 7039075
0.23400001 -0.062000003 1.161 3946307
0.22900002 -0.053000003 1.1620001 7762812
0.22000001 -0.044000003 1.1630001 7760240
0.177 -0.039000001 1.164 7430757
0.18200001 -0.039000001 1.1630001 7496550
0.186 -0.039000001 1.1620001 7693931
0.19100001 -0.039000001 1.1620001 7496552
0.19600001 -0.039000001 1.161 7167587
0.20100001 -0.039000001 1.161 7430759
0.20500001 -0.039000001 1.1600001 7628138
0.060000002 -0.034000002 1.164 7038044
0.12100001 -0.034000002 1.164 6181970
0.126 -0.034000002 1.164 6510935
0.13000001 -0.034000002 1.1630001 6708314
0.13500001 -0.034000002 1.1630001 6642265
0.142 -0.034000002 1.1625001 6970974
0.149 -0.034000002 1.1620001 6642009
0.15300001 -0.034000002 1.161 6970976
0.15800001 -0.034000002 1.1600001 6641495
0.163 -0.034000002 1.1600001 7102046
-0.296 -0.021000002 1.161 10781288
-0.29200003 -0.016000001 1.164 9596756
-0.39800003 -0.011000001 1.164 10913642
-0.28600001 -0.011000001 1.1600001 9728086
-0.29200003 -0.0060000001 1.1620001 9595472
-0.32200003 -0.0020000001 1.164 10451037
-0.31600001 -0.0020000001 1.1630001 9991001
-0.31100002 -0.0020000001 1.161 9596243
-0.30600002 -0.0020000001 1.161 10188380
-0.35700002 0.003 1.164 10319195
-0.35200003 0.003 1.1630001 9990230
-0.34600002 0.003 1.1620001 10517344
-0.34100002 0.003 1.161 10517344
-0.33600003 0.003 1.161 10384989
-0.33100003 0.003 1.1600001 9925208
-0.42400002 0.0080000004 1.164 11439987
-0.41900003 0.0080000004 1.164 10584424
-0.41300002 0.0080000004 1.1620001 11241838
-0.40700001 0.0080000004 1.161 10255713
-0.40200001 0.0080000004 1.161 11242351
-0.39700001 0.0080000004 1.161 10847082
-0.39200002 0.0080000004 1.161 10912619
-0.38600001 0.0080000004 1.161 11044459
-0.38100001 0.0080000004 1.161 10846822
-0.37600002 0.0080000004 1.161 10978665
-0.37100002 0.0080000004 1.1600001 11110251
-0.44500002 0.013 1.164 11571573
-0.43900001 0.013 1.1630001 10255200
-0.43300003 0.013 1.161 11176045
-0.75200003 0.024 1.164 10982782
-0.74500006 0.024 1.164 10851196
-0.73900002 0.024 1.164 10653818
-0.73200005 0.024 1.164 9863785
-0.72500002 0.024 1.1630001 10916474
-0.71800005 0.024 1.1630001 9797737
-0.71200001 0.024 1.1630001 10389875
-0.70600003 0.024 1.1630001 10324855
-0.69900006 0.024 1.1620001 10127478
-0.69200003 0.024 1.1620001 11114630
-0.68500006 0.024 1.1600001 10719872
-0.67800003 0.024 1.1600001 10653309
-0.67300004 0.024 1.1620001 10125684
-0.66800004 0.024 1.164 9598570
-0.77700001 0.029000001 1.161 10588275
-0.76900005 0.029000001 1.1600001 10719864
-0.66700006 0.029000001 1.161 9202785
-0.83500004 0.030000001 1.164 10720114
-0.82700002 0.030000001 1.1630001 10390893
-0.81900007 0.030000001 1.1620001 10390378
-0.81300002 0.030000001 1.1630001 10126949
-0.80500007 0.030000001 1.1620001 10192485
-0.79900002 0.030000001 1.1630001 9731420
-0.79100001 0.030000001 1.1620001 10257765
-0.78400004 0.030000001 1.161 10389866
-0.30000001 -0.77300006 1.1680001 7044765
-0.30400002 -0.76600003 1.166 7109260
-0.30400002 -0.76100004 1.169 4739417
-0.30900002 -0.75900006 1.1650001 4278868
-0.31400001 -0.75300002 1.166 6318717
-0.31900001 -0.74800003 1.1670001 7899044
-0.32500002 -0.74300003 1.169 8294317
-0.33000001 -0.73700005 1.169 8163760
-0.33500001 -0.73000002 1.1680001 8295346
-0.34 -0.72400004 1.1680001 8230321
-0.34400001 -0.71800005 1.1670001 8426931
-0.34900001 -0.70800006 1.1665001 8361139
-0.354 -0.69900006 1.1670001 8361137
-0.35800001 -0.69300002 1.166 8361138
-0.35800001 -0.68700004 1.1680001 8361139
-0.36300001 -0.68100005 1.1670001 8426931
-0.36800003 -0.67500001 1.166 8426932
-0.37200001 -0.66800004 1.1650001 8426932
-0.36800003 -0.67000002 1.169 8361139
-0.377 -0.66300005 1.1650001 8361653
-0.37300003 -0.66400003 1.1680001 8295859
-0.377 -0.65800005 1.1680001 8230067
-0.38200003 -0.65100002 1.166 8295602
-0.38700002 -0.64500004 1.166 8426932
-0.38200003 -0.64600003 1.169 8426932
-0.38700002 -0.64100003 1.169 8426419
-0.39100003 -0.63900006 1.1650001 8426932
-0.39100003 -0.634 1.1670001 8426419
-0.39600003 -0.62800002 1.166 8360626
-0.39600003 -0.62300003 1.1680001 8426418
-0.40100002 -0.61700004 1.1670001 8426415
-0.40600002 -0.611 1.1670001 8426419
-0.41100001 -0.60600001 1.1670001 8492212
-0.41100001 -0.60100001 1.169 8492212
-0.41550002 -0.597 1.1665001 8426419
-0.42000002 -0.588 1.166 8492212
-0.42000002 -0.583 1.1680001 8426417
-0.42400002 -0.57700002 1.166 8492212
-0.42900002 -0.57100004 1.1650001 8558005
-0.42500001 -0.57200003 1.169 8360627
-0.42900002 -0.56600004 1.1680001 8492212
-0.43400002 -0.56 1.1670001 8295344
-0.43800002 -0.55400002 1.1650001 8492212
-0.43400002 -0.55500001 1.169 8426419
-0.44300002 -0.54900002 1.1650001 8426930
-0.43900001 -0.55000001 1.1680001 8426419
-0.44400004 -0.54400003 1.1670001 8426417
-0.44800001 -0.53800005 1.166 8426419
-0.44400004 -0.53900003 1.169 8426419
-0.44800001 -0.53300005 1.1680001 8426419
-0.45300001 -0.52700001 1.166 8491698
-0.45700002 -0.52100003 1.1650001 8426419
-0.45300001 -0.52200001 1.169 8426419
-0.45800003 -0.51600003 1.1670001 8360626
-0.46200001 -0.51100004 1.166 8426162
-0.46300003 -0.50600004 1.169 8557235
-0.46700001 -0.505 1.1650001 8557489
-0.46700001 -0.4975 1.168 8360368
-0.74000001 -0.49200001 1.1650001 11780807
-0.47100002 -0.49400002 1.1650001 8491696
-0.47200003 -0.49000001 1.1680001 8294833
-0.47600001 -0.48400003 1.166 8425648
-0.48100004 -0.47800002 1.1650001 8425905
-0.47700003 -0.47900003 1.169 8359856
-0.48100004 -0.47300002 1.1670001 8360111
-0.72300005 -0.46600002 1.1650001 11780550
-0.48600003 -0.46800002 1.166 8425649
-0.48700002 -0.46300003 1.169 7834282
-0.72200006 -0.46000001 1.1650001 11714755
-0.49100003 -0.45700002 1.1670001 8425649
-0.49500003 -0.45200002 1.1650001 8425649
-0.49100003 -0.45300001 1.169 8425649
-0.49600002 -0.44700003 1.1670001 8425649
-0.5 -0.44100001 1.166 8294574
-0.50100005 -0.43700001 1.169 8360106
-0.505 -0.43100002 1.1670001 8294317
-0.50600004 -0.42600003 1.169 8294317
-0.69900006 -0.42400002 1.1680001 11780551
-0.51000005 -0.42500001 1.1650001 8360110
-0.51500005 -0.41500002 1.166 8294063
-0.51000005 -0.42000002 1.1670001 8360110
-0.52000004 -0.41000003 1.1650001 8228270
-0.51600003 -0.41100001 1.169 8294063
-0.52000004 -0.40500003 1.1670001 8359597
-0.68200004 -0.39900002 1.166 11911366
-0.52500004 -0.40000001 1.166 8228522
-0.52600002 -0.39500001 1.169 8293804
-0.67300004 -0.38600001 1.1650001 11977156
-0.53000003 -0.39000002 1.1670001 8294315
-0.53550005 -0.38200003 1.1675 8293291
-0.66600001 -0.37500003 1.166 12042437
-0.54000002 -0.37400001 1.1670001 8359084
-0.54299998 -0.36900002 1.1670001 8227755
-0.65900004 -0.36300001 1.166 12042690
-0.54500002 -0.36400002 1.1670001 8293804
-0.54900002 -0.35800001 1.1650001 8293291
-0.54500002 -0.35900003 1.169 8293291
-0.65200001 -0.35200003 1.1680001 12042690
-0.55000001 -0.35300002 1.1670001 8227752
-0.55400002 -0.34800002 1.1650001 8228009
-0.55000001 -0.34900001 1.169 8227753
-0.64600003 -0.34100002 1.169 12042179
-0.55500001 -0.34300002 1.1680001 8162470
-0.56 -0.33800003 1.166 8161959
-0.56 -0.333 1.1680001 8293545
-0.63600004 -0.32800001 1.1650001 11253434
-0.565 -0.32800001 1.166 8227496
-0.56600004 -0.32300001 1.169 8096166
-0.57000005 -0.31800002 1.1670001 8096166
-0.63100004 -0.31200001 1.169 11055801
-0.57500005 -0.31200001 1.1650001 8161957
-0.57100004 -0.31300002 1.169 8292775
-0.57600003 -0.30800003 1.1680001 8292773
-0.58100003 -0.303 1.1670001 8226980
-0.58500004 -0.29700002 1.1650001 8292773
-0.58600003 -0.29300001 1.1680001 8292773
-0.59000003 -0.287 1.1650001 8227493
-0.60800004 -0.28300002 1.166 8161181
-0.59600002 -0.28200001 1.1650001 8161959
-0.59100002 -0.28200001 1.1680001 8226980
-0.60300004 -0.27800003 1.1680001 8293029
-0.597 -0.27800003 1.169 8292262
0.83200002 -0.099000007 1.1670001 6974046
0.83800006 -0.099000007 1.1650001 6514262
0.80300003 -0.092000008 1.166 6842464
0.80900002 -0.092000008 1.1650001 6645085
0.047000002 -0.048 1.169 6972512
0.22500001 -0.049000002 1.1650001 7695986
0.051000003 -0.044000003 1.169 6644057
0.19700001 -0.044000003 1.169 7233633
0.20200001 -0.044000003 1.169 7693930
0.20700002 -0.044000003 1.1680001 7299172
0.21100001 -0.044000003 1.1670001 7497320
0.21600001 -0.044000003 1.166 7364966
0.056000002 -0.039000001 1.1680001 6906460
0.15200001 -0.039000001 1.169 6642265
0.15900001 -0.039000001 1.1680001 6708057
0.164 -0.039000001 1.1670001 6970717
0.16800001 -0.039000001 1.166 7102303
0.17300001 -0.039000001 1.1650001 6970463
0.065000005 -0.034000002 1.166 6643803
0.07 -0.034000002 1.1670001 6841182
0.077000007 -0.034000002 1.166 6380634
0.084000006 -0.034000002 1.166 6709854
0.088000007 -0.034000002 1.166 6840414
0.093000002 -0.034000002 1.166 7169122
0.098000005 -0.034000002 1.166 7235172
0.10200001 -0.034000002 1.166 6906206
0.10700001 -0.034000002 1.1650001 6905693
0.112 -0.034000002 1.1650001 6708313
0.116 -0.034000002 1.1650001 6576216
-0.30800003 -0.021000002 1.169 10648932
-0.30200002 -0.021000002 1.166 9925722
-0.29800001 -0.016000001 1.169 10188380
-0.39400002 -0.011000001 1.1670001 11242607
-0.29300001 -0.011000001 1.166 9333072
-0.42600003 -0.0070000002 1.169 10716523
-0.42000002 -0.0070000002 1.1680001 9861214
-0.41200003 -0.0070000002 1.1675 10913900
-0.40400001 -0.0070000002 1.1680001 10650470
-0.31800002 -0.0070000002 1.169 10846310
-0.31300002 -0.0070000002 1.1680001 10385759
-0.30700001 -0.0060000001 1.166 9596243
-0.30200002 -0.0060000001 1.166 9990744
-0.29700002 -0.0060000001 1.1650001 9924437
-0.34800002 -0.0020000001 1.169 10583137
-0.34300002 -0.0020000001 1.1680001 10254173
-0.33800003 -0.0020000001 1.1680001 10056023
-0.333 -0.0020000001 1.1670001 10319195
-0.32700002 -0.0020000001 1.166 10384988
-0.41750002 0.003 1.1685001 10979181
-0.40900001 0.003 1.1670001 10321506
-0.40400001 0.003 1.1670001 10913386
-0.39900002 0.003 1.1670001 10781287
-0.39400002 0.003 1.1670001 11176046
-0.38800001 0.003 1.1670001 10978666
-0.38300002 0.003 1.1670001 11373423
-0.37800002 0.003 1.1670001 11110251
-0.37300003 0.003 1.166 10715493
-0.36800003 0.003 1.166 10254685
-0.36200002 0.003 1.1650001 10385758
-0.44200003 0.0080000004 1.169 11242097
-0.43600002 0.0080000004 1.1670001 10781287
-0.43000001 0.0080000004 1.166 10979693
-0.45700002 0.013 1.1680001 10650219
-0.45100003 0.013 1.166 11373942
-0.70300001 0.019000001 1.169 10325371
-0.69600004 0.019000001 1.1680001 11312268
-0.68900001 0.019000001 1.1670001 10522752
-0.68200004 0.019000001 1.166 10128248
-0.67600006 0.019000001 1.166 11114631
-0.671 0.019000001 1.1680001 10587261
-0.78900003 0.024 1.169 10719348
-0.78200006 0.024 1.169 10719864
-0.77500004 0.024 1.1680001 10719092
-0.76700002 0.024 1.166 10456437
-0.75900006 0.024 1.1650001 10719609
-0.66400003 0.024 1.1670001 9137506
-0.81000006 0.025 1.169 9731936
-0.66300005 0.029000001 1.1650001 9399909
-0.85300004 0.030000001 1.169 10193002
-0.84300005 0.030000001 1.166 10127465
-0.29500002 -0.77250004 1.1730001 5727609
-0.30000001 -0.76800001 1.1700001 6187123
-0.30000001 -0.76300001 1.1730001 5198939
-0.31 -0.75500005 1.1700001 6647940
-0.30500001 -0.75700003 1.174 6911884
-0.31500003 -0.75100005 1.1720001 8228523
-0.32000002 -0.74400002 1.1720001 8359854
-0.32500002 -0.73900002 1.1730001 8295346
-0.33000001 -0.73300004 1.1730001 8229553
-0.33500001 -0.72600001 1.1720001 8164273
-0.34 -0.71900004 1.171 8295860
-0.34500003 -0.71300006 1.1700001 8361139
-0.34 -0.71500003 1.174 8361137
-0.34400001 -0.70700002 1.1720001 8361139
-0.34900001 -0.70100003 1.171 8361139
-0.34900001 -0.69600004 1.174 8361139
-0.354 -0.69400001 1.1700001 8426931
-0.354 -0.68900001 1.1720001 8361139
-0.35900003 -0.68300003 1.171 8230067
-0.36300001 -0.67600006 1.1700001 8295344
-0.36300001 -0.67200005 1.1730001 8361139
-0.36800003 -0.66500002 1.1720001 8295859
-0.37300003 -0.65900004 1.171 8295860
-0.37800002 -0.65300006 1.1700001 8295603
-0.37300003 -0.65400004 1.174 8361137
-0.37800002 -0.648 1.1730001 8361139
-0.38300002 -0.64200002 1.1720001 8492468
-0.38800001 -0.63600004 1.1720001 8426419
-0.38800001 -0.63100004 1.174 8426419
-0.39200002 -0.62900001 1.1700001 8426419
-0.39200002 -0.62400001 1.1720001 8426419
-0.39700001 -0.61800003 1.171 8426417
-0.40200001 -0.61300004 1.171 8294833
-0.39700001 -0.61400002 1.174 8294833
-0.40600002 -0.60700005 1.1700001 8492212
-0.40200001 -0.60800004 1.174 8294833
-0.40700001 -0.60200006 1.1730001 8492212
-0.41100001 -0.59600002 1.1720001 8492212
-0.41600001 -0.59000003 1.171 8426420
-0.41600001 -0.58500004 1.1730001 8295346
-0.42000002 -0.57800001 1.171 8491955
-0.42100003 -0.574 1.174 8426419
-0.42500001 -0.56800002 1.1720001 8360626
-0.43000001 -0.56100005 1.1700001 8361139
-0.42500001 -0.56300002 1.174 8360882
-0.43000001 -0.55700004 1.1730001 8426419
-0.43500003 -0.551 1.1720001 8294833
-0.44000003 -0.54000002 1.1730001 8426419
-0.43900001 -0.54500002 1.171 8426417
-0.44400004 -0.53400004 1.1720001 8295346
-0.44900003 -0.52900004 1.171 8426419
-0.44900003 -0.52400005 1.174 8426419
-0.45300001 -0.51800001 1.171 8294833
-0.45800003 -0.51200002 1.1700001 8360626
-0.45400003 -0.51300001 1.174 8294833
-0.45900002 -0.50700003 1.1730001 8360626
-0.46300003 -0.50100005 1.171 8360624
-0.46300003 -0.49600002 1.1730001 8360626
-0.46800002 -0.49100003 1.1720001 8360626
-0.74300003 -0.48900002 1.171 11714757
-0.73500001 -0.48200002 1.171 11780809
-0.47200003 -0.48500001 1.1700001 8425649
-0.47300002 -0.48000002 1.1730001 8491442
-0.47700003 -0.47400004 1.171 8425649
-0.48200002 -0.46900001 1.171 8425903
-0.48300001 -0.46400002 1.1730001 8359856
-0.48700002 -0.45900002 1.1720001 8359856
-0.48800004 -0.45400003 1.174 8359856
-0.49200001 -0.44800001 1.1720001 8359856
-0.49600002 -0.44200003 1.1700001 8229038
-0.708 -0.43700001 1.1700001 11780807
-0.49700001 -0.43800002 1.1730001 8294315
-0.50100005 -0.43200001 1.171 8163501
-0.50200003 -0.42700002 1.1730001 8360110
-0.50700003 -0.42200002 1.1720001 8294317
-0.51100004 -0.41600001 1.1700001 8293806
-0.50700003 -0.41700003 1.174 8359599
-0.51200002 -0.41200003 1.1730001 8359598
-0.51600003 -0.40600002 1.171 8293803
-0.51700002 -0.40100002 1.174 8228011
-0.52100003 -0.398 1.171 8293805
-0.68400002 -0.39400002 1.1700001 11977157
-0.52700001 -0.39100003 1.1720001 8294060
-0.53100002 -0.38500002 1.1700001 8359338
-0.52700001 -0.38600001 1.174 8359084
-0.67700005 -0.38300002 1.1730001 11976900
-0.53200001 -0.38100001 1.1730001 8293545
-0.53600001 -0.37500003 1.171 8359084
-0.66800004 -0.37 1.1700001 11911364
-0.537 -0.37 1.174 8359085
-0.54200006 -0.36500001 1.1720001 8359084
-0.66200006 -0.35900003 1.1720001 11976900
-0.54200006 -0.36000001 1.1730001 8293546
-0.54650003 -0.352 1.1730001 8227497
-0.55200005 -0.34400001 1.1730001 8161959
-0.648 -0.33600003 1.174 12042178
-0.55600005 -0.33900002 1.1700001 8162216
-0.55600005 -0.33400002 1.1720001 8095912
-0.56100005 -0.32900003 1.171 8227498
-0.63900006 -0.324 1.1720001 11910852
-0.56200004 -0.324 1.1730001 8161959
-0.56600004 -0.31800002 1.171 8161705
-0.56700003 -0.31400001 1.1730001 8226982
-0.57200003 -0.30800003 1.1720001 8226982
-0.62400001 -0.30100003 1.1700001 10200494
-0.57700002 -0.303 1.171 8226980
-0.58200002 -0.29800001 1.1700001 8424359
-0.57800001 -0.29900002 1.174 8226980
-0.61700004 -0.29000002 1.1700001 8489372
-0.583 -0.29300001 1.1730001 8358566
-0.58700001 -0.28800002 1.1700001 8161957
-0.588 -0.28300002 1.1730001 8226980
-0.61000001 -0.27900001 1.171 8160409
-0.59200001 -0.27800003 1.171 8292518
-0.60400003 -0.273 1.171 8226980
-0.59800005 -0.273 1.171 8226469
-0.59400004 -0.273 1.174 8292262
0.83700001 -0.105 1.174 6841945
0.84400004 -0.105 1.1730001 6644564
0.80800003 -0.098000005 1.174 6776671
0.81400001 -0.098000005 1.1720001 6842206
0.82000005 -0.099000007 1.171 7105632
0.82700002 -0.099000007 1.1700001 6974046
0.79300004 -0.092000008 1.1720001 6776671
0.79900002 -0.093000002 1.1700001 7171429
0.23700002 -0.068000004 1.1730001 3618371
0.23100001 -0.058000002 1.171 7697021
0.22700001 -0.054000001 1.1730001 7695730
0.21700001 -0.049000002 1.1730001 7497320
0.22100002 -0.049000002 1.1700001 7694700
0.16700001 -0.044000003 1.174 7299682
0.17400001 -0.044000003 1.1730001 7628648
0.17900001 -0.044000003 1.1720001 7101793
0.18300001 -0.044000003 1.1720001 7299170
0.18800001 -0.044000003 1.1700001 7562087
0.193 -0.044000003 1.1700001 7364964
0.061000004 -0.039000001 1.1720001 6972512
0.066 -0.039000001 1.174 7235939
0.07 -0.039000001 1.174 6512218
0.075000003 -0.039000001 1.174 5854290
0.082000002 -0.039000001 1.174 7169122
0.089000002 -0.039000001 1.174 7235941
0.094000004 -0.039000001 1.174 7169378
0.098000005 -0.039000001 1.174 7037536
0.10300001 -0.039000001 1.174 6708314
0.108 -0.039000001 1.174 6708056
0.112 -0.039000001 1.1730001 6838872
0.11700001 -0.039000001 1.1720001 6445396
0.12200001 -0.039000001 1.1720001 6774105
0.126 -0.039000001 1.171 6708057
0.13100001 -0.039000001 1.171 6905436
0.13600001 -0.039000001 1.1700001 6642007
0.14 -0.039000001 1.1700001 7036766
0.14500001 -0.039000001 1.1700001 6839643
-0.32500002 -0.026000001 1.174 9859927
-0.31800002 -0.026000001 1.1700001 10123099
-0.31400001 -0.021000002 1.1730001 9925209
-0.384 -0.016000001 1.1700001 10583648
-0.30900002 -0.016000001 1.174 9925208
-0.30400002 -0.016000001 1.1720001 10254173
-0.39000002 -0.011000001 1.1720001 10978665
-0.31400001 -0.011000001 1.174 9859158
-0.30900002 -0.011000001 1.1720001 10187609
-0.30400002 -0.011000001 1.171 9662036
-0.29800001 -0.011000001 1.1700001 10517345
-0.43800002 -0.0070000002 1.174 10980465
-0.43200001 -0.0070000002 1.171 11309173
-0.40000001 -0.0070000002 1.171 11241837
-0.39300001 -0.0070000002 1.1730001 11307630
-0.33400002 -0.0070000002 1.1730001 9662035
-0.32900003 -0.0070000002 1.1720001 10188379
-0.32300001 -0.0070000002 1.1700001 9925208
-0.43200001 -0.0020000001 1.1730001 10650732
-0.42700002 -0.0020000001 1.1720001 11308662
-0.42100003 -0.0020000001 1.171 10979182
-0.41600001 -0.0020000001 1.1700001 9202771
-0.41000003 -0.0020000001 1.1700001 11110252
-0.40500003 -0.0020000001 1.1700001 10912873
-0.40000001 -0.0020000001 1.171 10912873
-0.39500001 -0.0020000001 1.1720001 10781286
-0.38750002 -0.0020000001 1.1725001 11242351
-0.38000003 -0.0020000001 1.1730001 10649700
-0.37500003 -0.0020000001 1.1730001 10254685
-0.37 -0.0020000001 1.1720001 10187866
-0.36400002 -0.0020000001 1.1720001 10319966
-0.35900003 -0.0020000001 1.171 9991000
-0.354 -0.0020000001 1.1700001 10583137
-0.44300002 0.003 1.174 10453091
-0.43700001 0.003 1.1720001 10913389
-0.43200001 0.003 1.171 11506807
-0.42600003 0.003 1.1700001 10453349
-0.46000001 0.0080000004 1.174 10847598
-0.45300001 0.0080000004 1.1720001 10716010
-0.44700003 0.0080000004 1.1700001 10584678
-0.69300002 0.014 1.174 10917511
-0.68600005 0.014 1.1730001 10456960
-0.68000001 0.013 1.1730001 11049096
-0.67300004 0.013 1.1730001 11246216
-0.46300003 0.013 1.1700001 10913391
-0.76400006 0.019000001 1.1730001 9995371
-0.75700003 0.019000001 1.1720001 10982781
-0.75000006 0.019000001 1.1720001 10784634
-0.74300003 0.019000001 1.171 10455669
-0.73600006 0.019000001 1.171 9863533
-0.72900003 0.019000001 1.1700001 10850682
-0.72300005 0.019000001 1.1700001 10192751
-0.71600002 0.019000001 1.1700001 10061423
-0.71000004 0.019000001 1.1700001 10390905
-0.66600001 0.019000001 1.171 9402474
-0.66200006 0.019000001 1.174 9993840
-0.66000003 0.024 1.171 9203300
-0.84900004 0.025 1.174 10061673
-0.84000003 0.025 1.1720001 10390896
-0.83300006 0.025 1.1720001 10587760
-0.82500005 0.025 1.1700001 10192489
-0.81800002 0.025 1.171 10192487
-0.80400002 0.025 1.1700001 10520938
-0.79700005 0.025 1.1700001 10521714
-0.29100001 -0.77800006 1.176 6978457
-0.29000002 -0.77200001 1.1780001 5595252
-0.29500002 -0.76500005 1.177 7107968
-0.30000001 -0.75900006 1.1780001 7436684
-0.31100002 -0.75200003 1.176 8360108
-0.31600001 -0.74700004 1.177 8359854
-0.32100001 -0.74100006 1.177 8163760
-0.32600001 -0.73500001 1.177 8295346
-0.33100003 -0.72900003 1.177 8361139
-0.33500001 -0.72100002 1.1750001 8295346
-0.33600003 -0.71600002 1.1780001 8361138
-0.34 -0.70900005 1.176 8229809
-0.34500003 -0.70300001 1.1750001 8295346
-0.34 -0.70400006 1.179 8164274
-0.34500003 -0.69800001 1.1780001 8426932
-0.35000002 -0.69100004 1.177 8361139
-0.354 -0.68400002 1.1750001 8164274
-0.35900003 -0.67900002 1.1750001 8361139
-0.354 -0.68000001 1.1780001 8361139
-0.35900003 -0.67300004 1.177 8361139
-0.36400002 -0.66700006 1.176 8361139
-0.35900003 -0.66800004 1.179 8361139
-0.36800003 -0.66100001 1.1750001 8230067
-0.36400002 -0.66200006 1.179 8361139
-0.36900002 -0.65600002 1.1780001 8426418
-0.37400001 -0.65000004 1.177 8361139
-0.37800002 -0.64300001 1.176 8361139
-0.38300002 -0.63700002 1.1750001 8361139
-0.37900001 -0.63900006 1.179 8229553
-0.38300002 -0.63200003 1.1780001 8360626
-0.38800001 -0.62600005 1.176 8426419
-0.38800001 -0.62100005 1.179 8360625
-0.39200002 -0.62 1.1750001 8492211
-0.39200002 -0.61500001 1.177 8426419
-0.39700001 -0.60900003 1.177 8294833
-0.40200001 -0.60300004 1.177 8426419
-0.40700001 -0.59800005 1.177 8426419
-0.41200003 -0.59200001 1.176 8426420
-0.41200003 -0.58600003 1.177 8361139
-0.41600001 -0.58000004 1.1750001 8360626
-0.41700003 -0.57500005 1.1780001 8426419
-0.42100003 -0.56900001 1.176 8426420
-0.42100003 -0.56400001 1.179 8360626
-0.42600003 -0.55800003 1.177 8426419
-0.43100002 -0.55300003 1.177 8360626
-0.43500003 -0.546 1.1750001 8360626
-0.43100002 -0.54800004 1.179 8360626
-0.43600002 -0.54200006 1.1780001 8163760
-0.44000003 -0.53600001 1.176 8361139
-0.44500002 -0.53000003 1.1750001 8360624
-0.44100001 -0.53100002 1.179 8294831
-0.44500002 -0.52500004 1.177 8294833
-0.45000002 -0.51700008 1.1775 8295090
-0.45500001 -0.509 1.177 8294833
-0.45900002 -0.50300002 1.176 8294831
-0.46000001 -0.49800003 1.1780001 8295089
-0.46400002 -0.49200001 1.176 8360113
-0.46900001 -0.48600003 1.1750001 8359856
-0.46900001 -0.48100004 1.177 8425650
-0.73700005 -0.47700003 1.1750001 11649223
-0.47300002 -0.47500002 1.1750001 8425648
-0.47800002 -0.47000003 1.1750001 8360111
-0.47400004 -0.47100002 1.179 8425649
-0.47900003 -0.46500003 1.177 8359856
-0.48300001 -0.46000001 1.176 8359856
-0.72000003 -0.45100003 1.1750001 11714501
-0.48400003 -0.45500001 1.179 8360110
-0.72100002 -0.44700003 1.1780001 11714501
-0.48850003 -0.44700003 1.178 8294319
-0.49300003 -0.44400004 1.1750001 8229038
-0.49300003 -0.43900001 1.1780001 8229038
-0.71100003 -0.43300003 1.176 11846088
-0.49800003 -0.43300003 1.176 8425903
-0.49800003 -0.42800003 1.1780001 8359856
-0.70500004 -0.42200002 1.179 11780548
-0.50300002 -0.42300001 1.176 8293806
-0.50300002 -0.41800001 1.1780001 8293805
-0.50800002 -0.41200003 1.177 8359597
-0.69600004 -0.40900001 1.1780001 11911365
-0.51200002 -0.40700001 1.1750001 8293802
-0.50800002 -0.40800002 1.179 8228009
-0.51300001 -0.40200001 1.1780001 8293804
-0.51700002 -0.39600003 1.176 8293805
-0.523 -0.39100003 1.176 8293804
-0.523 -0.38700002 1.1780001 8293802
-0.528 -0.38100001 1.177 8359338
-0.53200001 -0.37600002 1.1750001 8359338
-0.528 -0.37600002 1.179 8293546
-0.53300005 -0.37100002 1.1780001 8359084
-0.53800005 -0.36600003 1.176 8227498
-0.53800005 -0.35800001 1.178 8293291
-0.54200006 -0.35250002 1.1760001 8227753
-0.65600002 -0.34800002 1.1750001 11976644
-0.54800004 -0.34500003 1.177 8227752
-0.55200005 -0.34 1.1750001 8096424
-0.54800004 -0.34 1.179 8162218
-0.55300003 -0.33500001 1.177 8227498
-0.55700004 -0.32900003 1.1750001 8161705
-0.55800003 -0.324 1.177 8030630
-0.56300002 -0.31900001 1.176 8161959
-0.56300002 -0.31400001 1.1780001 8226984
-0.56800002 -0.30900002 1.176 8292775
-0.57300001 -0.30400002 1.1750001 8292773
-0.56800002 -0.30400002 1.1780001 8292773
-0.62700003 -0.29800001 1.177 10924213
-0.574 -0.29900002 1.1780001 8226980
-0.57900006 -0.294 1.177 8226981
-0.62 -0.28600001 1.176 9674150
-0.583 -0.289 1.1750001 8227493
-0.57900006 -0.289 1.179 8030371
-0.58400005 -0.28400001 1.177 8161444
-0.588 -0.27800003 1.1750001 8358055
-0.61300004 -0.27500001 1.176 8094866
-0.58900005 -0.27400002 1.177 8292262
-0.60650003 -0.26700002 1.177 8095131
-0.60000002 -0.26900002 1.1750001 8292262
-0.59500003 -0.26900002 1.177 8292262
-0.60100001 -0.264 1.179 8226467
0.82600003 -0.105 1.179 7171424
0.83200002 -0.105 1.177 6973531
0.80400002 -0.099000007 1.1780001 6513756
0.23300001 -0.063000001 1.179 7696249
0.223 -0.054000001 1.1780001 7826287
0.18900001 -0.049000002 1.179 7496804
0.19400001 -0.049000002 1.1780001 7496547
0.19900002 -0.049000002 1.1780001 7430757
0.20300001 -0.049000002 1.177 7497061
0.208 -0.049000002 1.1750001 7694441
0.21300001 -0.049000002 1.1750001 7760237
0.056000002 -0.044000003 1.177 7104098
0.123 -0.044000003 1.179 7036252
0.127 -0.044000003 1.179 7102813
0.132 -0.044000003 1.179 6707801
0.13700001 -0.044000003 1.1780001 6642263
0.141 -0.044000003 1.1780001 6905434
0.14600001 -0.044000003 1.177 6707799
0.15100001 -0.044000003 1.176 6839129
0.155 -0.044000003 1.176 7102301
0.16000001 -0.044000003 1.1750001 6970460
-0.35600001 -0.026000001 1.177 10517084
-0.35100001 -0.026000001 1.179 10253656
-0.33600003 -0.026000001 1.179 9859414
-0.33000001 -0.026000001 1.177 10319965
-0.37100002 -0.021000002 1.176 11306858
-0.36700001 -0.021000002 1.179 11109736
-0.32600001 -0.021000002 1.179 9924951
-0.32000002 -0.021000002 1.177 9991001
-0.38100001 -0.016000001 1.1750001 10977893
-0.377 -0.016000001 1.179 10516830
-0.32100001 -0.016000001 1.179 9727829
-0.31500003 -0.016000001 1.177 9990744
-0.44500002 -0.012 1.177 11835516
-0.38600001 -0.011000001 1.176 10912872
-0.38200003 -0.011000001 1.179 10385758
-0.33600003 -0.011000001 1.179 9991000
-0.33100003 -0.011000001 1.1780001 10648931
-0.32250002 -0.011000001 1.1760001 10385759
-0.44500002 -0.0070000002 1.179 11374453
-0.38600001 -0.0070000002 1.176 11044458
-0.38200003 -0.0070000002 1.1780001 10715236
-0.377 -0.0070000002 1.1780001 10385758
-0.37200001 -0.0070000002 1.179 10648674
-0.36600003 -0.0070000002 1.1780001 10254172
-0.36100003 -0.0070000002 1.177 10912102
-0.35600001 -0.0070000002 1.177 10912102
