# .PCD v0.7 - Point Cloud Data file format
VERSION 0.7
FIELDS x y z rgb
SIZE 4 4 4 4
TYPE F F F U
COUNT 1 1 1 1
WIDTH 1251
HEIGHT 1
VIEWPOINT 0 0 0 1 0 0 0
POINTS 1251
DATA ascii
-0.20400001 0.31800002 1.22 10591392
-0.19900002 0.31800002 1.2210001 10525599
-0.19400001 0.31800002 1.2210001 4406590
-0.18900001 0.31800002 1.2210001 3353903
-0.18400002 0.317 1.2210001 2893352
-0.17900001 0.317 1.2210001 2893353
-0.22000001 0.32300001 1.22 10460319
-0.215 0.324 1.2210001 10591646
-0.20750001 0.32300001 1.2210001 10591390
-0.2 0.32300001 1.222 10591392
-0.19250001 0.32300001 1.2215 3880760
-0.185 0.32300001 1.222 2959145
-0.17900001 0.32300001 1.2210001 2893353
-0.17400001 0.32200003 1.22 2893354
-0.23500001 0.32900003 1.22 10525599
-0.23 0.32900003 1.22 10459806
-0.22250001 0.32900003 1.2215 10459806
-0.215 0.32900003 1.222 10460318
-0.20750001 0.32900003 1.222 10460317
-0.2 0.32900003 1.223 10394782
-0.19250001 0.32850003 1.2225001 4077624
-0.185 0.32800001 1.223 2959145
-0.18000001 0.32800001 1.223 2827559
-0.17400001 0.32800001 1.2210001 3024169
-0.15900001 0.32800001 1.222 10460835
-0.2 0.33400002 1.2240001 10525599
-0.19250001 0.33400002 1.2240001 4209725
-0.17750001 0.33350003 1.223 2893096
-0.65300006 0.33800003 1.2210001 13018231
-0.24600001 0.33500001 1.22 10591135
-0.24100001 0.33500001 1.22 10525342
-0.23600002 0.33500001 1.2210001 10591135
-0.23100001 0.33500001 1.222 10525342
-0.22600001 0.33500001 1.223 10525599
-0.22100002 0.33500001 1.223 10525599
-0.21600001 0.33500001 1.223 10525599
-0.21100001 0.33500001 1.2240001 10525599
-0.20600002 0.33500001 1.2240001 10591392
-0.17500001 0.33900002 1.2240001 2762025
-0.26700002 0.34100002 1.22 10393754
-0.26200002 0.34100002 1.22 10459547
-0.257 0.34100002 1.2210001 10393754
-0.25100002 0.34 1.22 10525340
-0.24600001 0.34 1.2210001 10525342
-0.24100001 0.34 1.222 10525342
-0.23600002 0.34 1.222 10525599
-0.23100001 0.34 1.223 10591135
-0.22600001 0.34 1.223 10525342
-0.22100002 0.34 1.2240001 10656928
-0.27700001 0.347 1.22 10525083
-0.27200001 0.34600002 1.22 10525083
-0.26700002 0.34600002 1.2210001 10393754
-0.26200002 0.34600002 1.2210001 10525340
-0.257 0.34600002 1.222 10459546
-0.252 0.34600002 1.222 10459547
-0.24700001 0.34600002 1.223 10459547
-0.24200001 0.34600002 1.223 10525340
-0.23700002 0.34600002 1.2240001 10394013
-0.23200001 0.34600002 1.2240001 10459806
-0.29300001 0.35300002 1.22 10393754
-0.28800002 0.35200003 1.22 10327961
-0.28300002 0.35200003 1.2210001 10393754
-0.27800003 0.35200003 1.2210001 10393754
-0.273 0.35200003 1.2210001 10327961
-0.26800001 0.35200003 1.222 10393754
-0.26300001 0.35200003 1.223 10393754
-0.25800002 0.35200003 1.2240001 10525340
-0.252 0.35200003 1.223 10460060
-0.24700001 0.35200003 1.2240001 10394267
-0.24200001 0.35200003 1.2240001 10460060
-0.17 0.354 1.222 4209473
-0.30400002 0.35800001 1.22 10458775
-0.29900002 0.35800001 1.22 10393752
-0.294 0.35800001 1.2210001 10458777
-0.289 0.35800001 1.2210001 10393754
-0.28400001 0.35800001 1.222 10393754
-0.27800003 0.35800001 1.222 10394267
-0.273 0.35800001 1.223 10393754
-0.26800001 0.35800001 1.223 10393754
-0.26300001 0.35800001 1.2240001 10394011
-0.31500003 0.36400002 1.22 10393239
-0.31 0.36400002 1.2210001 10262166
-0.30250001 0.36400002 1.222 10327959
-0.294 0.36400002 1.222 10458777
-0.289 0.36400002 1.223 10393754
-0.28400001 0.36400002 1.223 10327961
-0.27900001 0.36400002 1.2240001 10262681
-0.27400002 0.36400002 1.2240001 10327961
-0.32600001 0.37100002 1.2210001 9143169
-0.32100001 0.37100002 1.222 10261650
-0.31600001 0.37100002 1.223 10327191
-0.31100002 0.37 1.223 10458776
-0.30600002 0.37 1.2240001 10327959
-0.30000001 0.37 1.2240001 10393751
-0.29500002 0.37 1.2240001 10327961
-0.32700002 0.37600002 1.222 9143169
-0.32200003 0.37600002 1.223 10196373
-0.317 0.37600002 1.2240001 10261396
-0.32800001 0.38200003 1.2240001 9011582
-0.044000003 -0.11400001 1.2260001 11766389
-0.034000002 -0.11400001 1.225 11505528
-0.029000001 -0.11400001 1.2290001 11833212
0.177 -0.115 1.225 5585983
0.015000001 -0.109 1.228 11701626
0.059000004 -0.104 1.2260001 11044209
0.064000003 -0.105 1.2290001 11438968
0.162 -0.1 1.225 11573138
0.18200001 -0.1 1.2260001 13149579
0.18200001 0.018000001 1.2260001 2234907
0.142 0.023000002 1.225 14406355
0.147 0.023000002 1.2260001 11117222
0.162 0.023000002 1.2260001 2697262
0.16700001 0.023000002 1.2260001 3420985
0.17200001 0.023000002 1.228 3289141
0.177 0.023000002 1.2290001 4341057
-0.093000002 0.17500001 1.2290001 10921136
-0.123 0.19500001 1.2260001 5065558
0.059000004 0.21900001 1.225 10065828
0.064000003 0.21900001 1.225 10394793
0.069000006 0.21900001 1.225 8815761
0.045000002 0.22400001 1.225 10263207
0.050000001 0.22400001 1.225 10263207
0.084000006 0.22000001 1.225 8747649
-0.088000007 0.22500001 1.2260001 10855596
0.035 0.22900002 1.225 10329000
0.040000003 0.22900002 1.225 10329000
0.057000004 0.22500001 1.2260001 10066085
0.064000003 0.22500001 1.2260001 10526378
0.069000006 0.22500001 1.2260001 8947346
0.074000001 0.22500001 1.225 8816018
0.079000004 0.22500001 1.225 8881038
0.084000006 0.22500001 1.2260001 8220016
0.030000001 0.23400001 1.225 10328999
0.045000002 0.23 1.2260001 10329000
0.050000001 0.23 1.2260001 10329000
0.055000003 0.23 1.2270001 10132134
0.062000003 0.23 1.2270001 10657964
0.069000006 0.23 1.2270001 9012881
0.074000001 0.23 1.2270001 8947089
0.079000004 0.23 1.2270001 8946315
0.084000006 0.23 1.228 9205363
0.025 0.23900001 1.225 10263207
0.035 0.23500001 1.2260001 10263207
0.040000003 0.23500001 1.2270001 10328999
0.045000002 0.23500001 1.228 10263207
0.050000001 0.23500001 1.228 10263206
0.055000003 0.23500001 1.228 10131877
0.060000002 0.23500001 1.2290001 10131620
0.065000005 0.23500001 1.2290001 9999775
0.07 0.23500001 1.228 8947087
0.077000007 0.23500001 1.2290001 8881293
0.010000001 0.24400002 1.225 10131621
0.015000001 0.24400002 1.225 10197414
0.030000001 0.24000001 1.2260001 10263207
0.035 0.24000001 1.2270001 10197414
0.040000003 0.24000001 1.228 10329000
0.045000002 0.24000001 1.2290001 10263207
0 0.24900001 1.225 10197414
0.0050000004 0.24900001 1.225 10263207
0.020000001 0.245 1.2260001 10263207
0.025 0.245 1.2270001 10263207
0.030000001 0.245 1.2270001 10328999
0.035 0.245 1.228 10263205
0.040000003 0.245 1.2290001 10263207
0.010000001 0.25 1.2270001 10263207
0.015000001 0.25 1.2270001 10329000
0.020000001 0.25 1.228 10329000
0.025 0.25 1.228 10394793
0.030000001 0.25 1.2290001 10460585
0.035 0.25 1.2290001 10263206
-0.024 0.25500003 1.225 10263207
-0.019000001 0.25500003 1.225 10263207
-0.014 0.25500003 1.225 10131621
-0.0070000002 0.25500003 1.2255001 10065826
0 0.25500003 1.2260001 10066337
0.0050000004 0.25500003 1.2270001 10132130
0.010000001 0.25500003 1.228 10197414
0.015000001 0.25500003 1.2290001 10329000
0.020000001 0.25500003 1.2290001 10394793
-0.084000006 0.26000002 1.2260001 10724010
-0.034000002 0.26000002 1.225 10263207
-0.029000001 0.26000002 1.225 10329000
-0.024 0.26000002 1.2260001 10197414
-0.019000001 0.26000002 1.2260001 10197414
-0.014 0.26000002 1.2260001 10065828
-0.0070000002 0.26000002 1.2275001 10065826
0 0.26000002 1.228 10131619
0.0050000004 0.26000002 1.2290001 10066339
-0.119 0.266 1.2290001 4275267
-0.039000001 0.26500002 1.225 10394793
-0.034000002 0.26500002 1.2260001 10394793
-0.029000001 0.26500002 1.2270001 10263720
-0.024 0.26500002 1.2270001 10066341
-0.019000001 0.26500002 1.228 10132134
-0.012 0.26550001 1.2285001 10000292
-0.0050000004 0.266 1.2290001 10131621
0 0.266 1.2290001 10131621
-0.049000002 0.27000001 1.225 10460838
-0.044000003 0.27000001 1.2260001 10394791
-0.039000001 0.27000001 1.2270001 10263206
-0.034000002 0.27000001 1.2270001 10263207
-0.029000001 0.27000001 1.228 10328741
-0.024 0.27000001 1.228 10197412
-0.019000001 0.27100003 1.2290001 10197412
-0.014 0.27100003 1.2290001 10066083
-0.079000004 0.27600002 1.2270001 10724010
-0.074000001 0.27500001 1.225 10723497
-0.059000004 0.27500001 1.2260001 10460838
-0.054000001 0.27500001 1.2260001 10460838
-0.049000002 0.27500001 1.2270001 10395045
-0.044000003 0.27500001 1.2270001 10328998
-0.039000001 0.27600002 1.228 10263206
-0.034000002 0.27600002 1.228 10262949
-0.079000004 0.28100002 1.228 10592424
-0.074000001 0.28100002 1.2260001 10657702
-0.069000006 0.28100002 1.2260001 10592422
-0.064000003 0.28 1.2260001 10592422
-0.059000004 0.28100002 1.228 10461349
-0.054000001 0.28100002 1.228 10329764
-0.049000002 0.28100002 1.2290001 10329252
-0.044000003 0.28100002 1.2290001 10328741
-0.039000001 0.28100002 1.2290001 10394534
-0.034000002 0.28100002 1.2290001 10197155
-0.119 0.287 1.2290001 3354937
-0.074000001 0.28600001 1.2290001 10526631
-0.069000006 0.28600001 1.228 10526631
-0.064000003 0.28600001 1.228 10526631
-0.054000001 0.28600001 1.2290001 10395045
-0.119 0.29200003 1.2270001 3223607
-0.069000006 0.29200003 1.2290001 10526631
-0.119 0.29700002 1.228 3157556
-0.12400001 0.30200002 1.225 2827821
-0.119 0.30200002 1.2270001 3157299
-0.12900001 0.30700001 1.225 3156786
-0.12400001 0.30700001 1.2270001 2630442
-0.119 0.30800003 1.2290001 3222579
-0.14400001 0.31200001 1.225 3420210
-0.13900001 0.31200001 1.225 3222578
-0.134 0.31200001 1.225 3156786
-0.12900001 0.31300002 1.2270001 3156273
-0.125 0.31300002 1.2290001 2433834
-0.149 0.31800002 1.225 9407887
-0.14400001 0.31800002 1.2260001 3617332
-0.1375 0.31800002 1.2270001 3025713
-0.13000001 0.31800002 1.2290001 3352882
-0.15000001 0.32300001 1.2260001 10065819
-0.14500001 0.324 1.228 3617589
-0.1375 0.32300001 1.228 3091249
-0.13000001 0.324 1.2290001 3287088
-0.1525 0.32900003 1.2270001 10460834
-0.14500001 0.32900003 1.2290001 3749174
-0.1375 0.32900003 1.2290001 3156785
-0.185 0.33400002 1.225 2959145
-0.1525 0.33400002 1.2285001 10394786
-0.67500001 0.33500001 1.2260001 13356494
-0.21600001 0.34 1.225 10656928
-0.21100001 0.34 1.225 10656928
-0.20600002 0.34 1.2260001 10656928
-0.20100001 0.34 1.2260001 10591135
-0.19600001 0.34 1.2260001 5920086
-0.19100001 0.34 1.2260001 3420209
-0.186 0.34 1.2260001 3024938
-0.18000001 0.34 1.2260001 2959145
-0.155 0.34 1.2290001 10395043
-0.22700001 0.34600002 1.225 10459549
-0.22200002 0.34600002 1.2260001 10525342
-0.21600001 0.34600002 1.2260001 10459549
-0.21100001 0.34600002 1.2260001 10591135
-0.20600002 0.34600002 1.2270001 10656928
-0.20100001 0.34600002 1.228 10525599
-0.19600001 0.34600002 1.228 7038311
-0.19100001 0.34600002 1.228 3419696
-0.186 0.34600002 1.228 3024938
-0.18100001 0.34500003 1.2270001 2893352
-0.17500001 0.34500003 1.2260001 2761768
-0.23700002 0.35200003 1.225 10460060
-0.23200001 0.35200003 1.2260001 10460060
-0.22700001 0.35200003 1.2270001 10328990
-0.22200002 0.35200003 1.2270001 10263197
-0.21700001 0.35200003 1.2270001 10459806
-0.21200001 0.35200003 1.228 10525599
-0.20700002 0.35200003 1.2290001 10263197
-0.20200001 0.35200003 1.2290001 10328990
-0.17600001 0.35000002 1.2270001 2826792
-0.25800002 0.35800001 1.225 10394010
-0.25300002 0.35800001 1.225 10393752
-0.24800001 0.35700002 1.225 10394010
-0.24300002 0.35800001 1.2260001 10394010
-0.23700002 0.35700002 1.2260001 10393754
-0.23200001 0.35700002 1.2270001 10459547
-0.22700001 0.35800001 1.228 10525340
-0.22200002 0.35700002 1.228 10525340
-0.21700001 0.35800001 1.2290001 10459549
-0.26900002 0.36400002 1.225 10327961
-0.264 0.36300001 1.225 10328474
-0.259 0.36400002 1.2270001 10394010
-0.25400001 0.36400002 1.2270001 10394009
-0.24800001 0.36300001 1.2270001 10394267
-0.24300002 0.36300001 1.2270001 10394013
-0.23800001 0.36300001 1.228 10328220
-0.23300001 0.36300001 1.228 10328220
-0.22800002 0.36300001 1.2290001 10394013
-0.171 0.36000001 1.225 4077375
-0.264 0.36900002 1.2270001 10328217
-0.25400001 0.36900002 1.228 10393753
-0.24900001 0.36900002 1.2290001 10394011
-0.24400002 0.36900002 1.2290001 10328219
-0.23800001 0.36900002 1.2290001 10328220
-0.29000002 0.37 1.225 10262168
-0.28500003 0.37 1.225 10262425
-0.28 0.37 1.225 10262425
-0.27400002 0.37 1.2260001 10262166
-0.26900002 0.37 1.2270001 10328215
-0.259 0.37 1.228 10394266
-0.31200001 0.37600002 1.225 10327443
-0.30600002 0.37600002 1.225 10262163
-0.30100003 0.37600002 1.225 10262420
-0.296 0.37600002 1.225 10262165
-0.29100001 0.37600002 1.2270001 10262164
-0.28500003 0.37600002 1.2270001 10328213
-0.28 0.37600002 1.2270001 10262420
-0.27250001 0.37500003 1.2275001 10196885
-0.26500002 0.37500003 1.228 10196886
-0.26000002 0.37500003 1.2290001 10328472
-0.32300001 0.38200003 1.225 10459029
-0.317 0.38200003 1.225 10393237
-0.31200001 0.38200003 1.2260001 10393236
-0.30700001 0.38200003 1.2270001 10262420
-0.30200002 0.38200003 1.2270001 10262420
-0.296 0.38200003 1.2270001 10262420
-0.29100001 0.38200003 1.228 10262420
-0.28600001 0.38200003 1.228 10393236
-0.28100002 0.38100001 1.228 10459029
-0.27600002 0.38100001 1.2290001 10262420
-0.32800001 0.38800001 1.225 9011583
-0.32300001 0.38900003 1.2270001 10129810
-0.31800002 0.38800001 1.2270001 10327189
-0.31300002 0.38800001 1.228 10327189
-0.30800003 0.38800001 1.2290001 10327189
-0.30200002 0.38800001 1.2290001 10392982
-0.29700002 0.38800001 1.2290001 10261652
-0.324 0.39400002 1.228 10196370
-0.31900001 0.39400002 1.2290001 10261396
-0.32900003 0.39500001 1.228 9143168
-0.088000007 -0.125 1.2310001 12029558
-0.073000006 -0.12 1.233 10515035
-0.024 -0.115 1.233 11767675
0.18300001 -0.11000001 1.2310001 9863554
0.069000006 -0.105 1.2310001 11241589
0.16800001 -0.1 1.2310001 11506828
0.17300001 -0.1 1.23 7097146
0.178 -0.1 1.2310001 11505014
-0.053000003 -0.046000004 1.233 10318434
0.18300001 0.023000002 1.2340001 1841695
0.085000001 0.23600002 1.23 9532781
0.050000001 0.24000001 1.23 10197414
0.055000003 0.24000001 1.23 10197412
0.060000002 0.24100001 1.23 10131621
0.065000005 0.24100001 1.23 9407898
0.07 0.24100001 1.23 8815761
0.075000003 0.24100001 1.2310001 9078413
0.080000006 0.24100001 1.2320001 9011332
0.045000002 0.245 1.23 10263205
0.050000001 0.24600001 1.2310001 10328999
0.055000003 0.24600001 1.2310001 10132134
0.060000002 0.24600001 1.2310001 10197669
0.065000005 0.24600001 1.2320001 9078931
0.07 0.24600001 1.2320001 9013138
0.075000003 0.24600001 1.233 8881550
0.080000006 0.24700001 1.2340001 8945023
0.040000003 0.25100002 1.23 10328998
0.045000002 0.25100002 1.2310001 10263206
0.050000001 0.25100002 1.2310001 10263206
0.055000003 0.25100002 1.2320001 10197412
0.060000002 0.25100002 1.2320001 10131619
0.065000005 0.25100002 1.233 8947345
0.07 0.252 1.2340001 8815759
0.025 0.25600001 1.23 10329000
0.030000001 0.25600001 1.23 10329255
0.035 0.25600001 1.23 10328998
0.040000003 0.25600001 1.2310001 10197925
0.045000002 0.25600001 1.2310001 10197412
0.050000001 0.25600001 1.2320001 10197669
0.055000003 0.25600001 1.233 10263719
0.060000002 0.257 1.2340001 10526377
0.010000001 0.26100001 1.23 10131621
0.015000001 0.26100001 1.23 10263207
0.020000001 0.26100001 1.23 10329000
0.025 0.26100001 1.2310001 10329000
0.030000001 0.26100001 1.2310001 10263205
0.035 0.26100001 1.2320001 10263205
0.040000003 0.26100001 1.2320001 10263205
0.045000002 0.26100001 1.233 10197412
0.050000001 0.26200002 1.2340001 10066083
0.055000003 0.26200002 1.2340001 10000290
-0.084000006 0.266 1.2310001 10789549
0.0050000004 0.266 1.23 10197414
0.010000001 0.266 1.2310001 10197414
0.015000001 0.266 1.2310001 10329000
0.020000001 0.266 1.2320001 10329000
0.025 0.266 1.233 10329000
0.030000001 0.266 1.233 10328998
0.035 0.266 1.233 10328998
0.040000003 0.26700002 1.2340001 10263205
0.045000002 0.26700002 1.2340001 10197413
-0.119 0.27200001 1.2310001 3617851
-0.084000006 0.27200001 1.2320001 10789549
-0.010000001 0.27100003 1.23 10065826
-0.0050000004 0.27100003 1.23 10065569
0 0.27100003 1.23 10131362
0.0050000004 0.27100003 1.2310001 10197155
0.010000001 0.27100003 1.2320001 10131873
0.015000001 0.27100003 1.2320001 10197412
0.020000001 0.27200001 1.233 10197414
0.025 0.27200001 1.2340001 10263207
-0.119 0.27700001 1.2310001 3419958
-0.084000006 0.27700001 1.233 10724010
-0.029000001 0.27600002 1.23 10262694
-0.024 0.27600002 1.23 10131619
-0.019000001 0.27600002 1.23 10131362
-0.012 0.27600002 1.2305 10131360
-0.0050000004 0.27600002 1.2310001 10131873
0 0.27600002 1.2320001 10066080
0.0050000004 0.27600002 1.2320001 10066083
0.010000001 0.27700001 1.2340001 10131619
0.015000001 0.27700001 1.2340001 10263205
0.020000001 0.27700001 1.2340001 10263205
-0.119 0.28200001 1.2320001 3486008
-0.084000006 0.28200001 1.2320001 10658217
-0.029000001 0.28100002 1.23 10197666
-0.024 0.28100002 1.23 10131619
-0.019000001 0.28100002 1.2310001 10066080
-0.012500001 0.28200001 1.2320001 10065824
-0.0050000004 0.28200001 1.233 10066080
0 0.28200001 1.2340001 10066080
0.0050000004 0.28200001 1.2340001 10131619
-0.079000004 0.287 1.23 10526631
-0.059000004 0.287 1.23 10460838
-0.049000002 0.28600001 1.23 10329250
-0.044000003 0.28600001 1.23 10329252
-0.039000001 0.28600001 1.23 10263459
-0.034000002 0.28600001 1.23 10197412
-0.029000001 0.287 1.2310001 10131619
-0.022 0.287 1.2325001 10065826
-0.012500001 0.287 1.233 10000545
-0.0050000004 0.287 1.2340001 10000289
-0.079000004 0.29200003 1.2310001 10461093
-0.074000001 0.29200003 1.23 10526631
-0.064000003 0.29200003 1.23 10395302
-0.059000004 0.29200003 1.2310001 10329509
-0.054000001 0.29200003 1.2310001 10263716
-0.049000002 0.29200003 1.2310001 10263716
-0.044000003 0.29200003 1.2310001 10197923
-0.039000001 0.29200003 1.2320001 10197925
-0.034000002 0.29200003 1.2320001 9934753
-0.029000001 0.29200003 1.2320001 10065826
-0.022500001 0.29200003 1.2335 10000033
-0.015000001 0.29200003 1.2340001 10000033
-0.080000006 0.29800001 1.233 10460838
-0.074000001 0.29700002 1.2310001 10395045
-0.069000006 0.29700002 1.2310001 10460838
-0.064000003 0.29700002 1.2310001 10395045
-0.059000004 0.29700002 1.2320001 10329509
-0.054000001 0.29700002 1.2320001 10328996
-0.050000001 0.29700002 1.233 10263204
-0.042000003 0.29700002 1.2325001 10197411
-0.035 0.29700002 1.233 10066339
-0.030000001 0.29800001 1.2340001 10065826
-0.025 0.29800001 1.2340001 10065826
-0.075000003 0.303 1.233 10460836
-0.069000006 0.303 1.2320001 10460836
-0.064000003 0.303 1.2320001 10395044
-0.057500005 0.303 1.2335 10263458
-0.050000001 0.303 1.2340001 10263459
-0.042500004 0.303 1.2340001 10197411
-0.035 0.303 1.2340001 10131619
-0.067500003 0.30800003 1.2340001 10526117
-0.057500005 0.30800003 1.2340001 10328737
-0.12 0.31300002 1.23 2894128
-0.125 0.31800002 1.23 2368297
-0.12 0.31900001 1.233 3091507
-0.125 0.324 1.2310001 2433577
-0.12 0.324 1.233 2828335
-0.13000001 0.32900003 1.2310001 3352881
-0.125 0.33000001 1.233 2433832
-0.12 0.33000001 1.2340001 2960176
-0.67200005 0.33700001 1.2320001 15396590
-0.66400003 0.33600003 1.2310001 13226955
-0.65900004 0.33600003 1.233 12951926
-0.14500001 0.33500001 1.23 3946299
-0.1375 0.33500001 1.2310001 3091246
-0.13000001 0.33500001 1.2320001 3090992
-0.125 0.33500001 1.2340001 2564648
-0.15000001 0.34 1.23 10263456
-0.14600001 0.34 1.2320001 3815483
-0.141 0.34100002 1.233 3288623
-0.13500001 0.34 1.2320001 2828075
-0.13100001 0.34100002 1.2340001 3156783
-0.156 0.34500003 1.23 10657185
-0.15100001 0.34600002 1.2320001 10525348
-0.14600001 0.34600002 1.233 4012346
-0.141 0.34600002 1.2340001 3354416
-0.13600001 0.34600002 1.2340001 2697004
-0.19700001 0.35200003 1.23 8156020
-0.192 0.35200003 1.2310001 3550512
-0.18700001 0.35200003 1.2310001 3024425
-0.18100001 0.35100001 1.23 2761767
-0.156 0.35100001 1.23 10525856
-0.15100001 0.35100001 1.233 10525348
-0.21200001 0.35800001 1.23 10591135
-0.20700002 0.35700002 1.23 10459806
-0.20200001 0.35800001 1.2310001 10459806
-0.19700001 0.35800001 1.2320001 8945795
-0.192 0.35800001 1.2320001 3485489
-0.18700001 0.35800001 1.233 3024940
-0.18200001 0.35800001 1.233 2761768
-0.223 0.36300001 1.23 10394013
-0.21800001 0.36300001 1.23 10393756
-0.21300001 0.36300001 1.2310001 10459549
-0.208 0.36300001 1.2320001 10459806
-0.20300001 0.36300001 1.2320001 10394013
-0.19800001 0.36300001 1.233 9670031
-0.192 0.36400002 1.2340001 3617075
-0.177 0.36300001 1.233 2629929
-0.156 0.36200002 1.233 10394530
-0.23300001 0.36900002 1.23 10394013
-0.22800002 0.36900002 1.2310001 10394013
-0.223 0.36900002 1.2310001 10459549
-0.21800001 0.36900002 1.2320001 10328220
-0.21300001 0.36900002 1.233 10394013
-0.208 0.36900002 1.233 10394013
-0.20300001 0.36900002 1.2340001 10393756
-0.25500003 0.37500003 1.23 10327960
-0.24900001 0.37500003 1.23 10459547
-0.24400002 0.37500003 1.23 10393754
-0.23900001 0.37500003 1.2310001 10393754
-0.23400001 0.37500003 1.2310001 10393754
-0.22900002 0.37500003 1.2320001 10262681
-0.22400001 0.37500003 1.233 10328220
-0.21900001 0.37500003 1.233 10328219
-0.21400002 0.37500003 1.2340001 10394012
-0.27100003 0.38100001 1.23 10262420
-0.26500002 0.38100001 1.23 10196886
-0.26000002 0.38100001 1.2310001 10262679
-0.25500003 0.38100001 1.2310001 10327961
-0.25 0.38100001 1.2310001 10327961
-0.245 0.38100001 1.2320001 10327961
-0.24000001 0.38100001 1.233 10262168
-0.23400001 0.38100001 1.233 10327960
-0.22900002 0.38100001 1.2340001 10393754
-0.29200003 0.38800001 1.23 10261908
-0.287 0.38800001 1.23 10196372
-0.28100002 0.38700002 1.23 10131093
-0.27600002 0.38700002 1.2310001 10327700
-0.27100003 0.38700002 1.2310001 10196627
-0.266 0.38700002 1.2320001 10262166
-0.26100001 0.38700002 1.2320001 10327959
-0.25600001 0.38700002 1.233 10327961
-0.25 0.38700002 1.233 10262168
-0.245 0.38700002 1.233 10327961
-0.24000001 0.38700002 1.2340001 10262168
-0.31400001 0.39400002 1.23 10392982
-0.30800003 0.39400002 1.23 10327189
-0.303 0.39400002 1.2310001 10327189
-0.29800001 0.39400002 1.2310001 10327189
-0.29300001 0.39400002 1.2310001 10261396
-0.287 0.39400002 1.2320001 10327446
-0.28200001 0.39300001 1.2320001 10196373
-0.27700001 0.39300001 1.2320001 10196627
-0.27200001 0.39300001 1.233 10262420
-0.266 0.39300001 1.233 10262420
-0.26100001 0.39300001 1.233 10131093
-0.25600001 0.39300001 1.2340001 10262166
-0.25100002 0.39300001 1.2340001 10262166
-0.28300002 0.39900002 1.233 10261651
-0.27700001 0.39900002 1.2340001 10327444
-0.27200001 0.39900002 1.2340001 10262163
-0.26700002 0.39900002 1.2340001 10131091
-0.33000001 0.40100002 1.23 8945789
-0.32250002 0.40100002 1.2305 10130320
-0.31400001 0.40000001 1.2310001 10327443
-0.30900002 0.40000001 1.2320001 10327188
-0.30400002 0.40000001 1.2320001 10327189
-0.29800001 0.40000001 1.2320001 10261396
-0.29300001 0.40000001 1.233 10327187
-0.28800002 0.40000001 1.233 10261650
-0.33100003 0.40700001 1.2310001 8945790
-0.32250002 0.40600002 1.2315001 10196370
-0.31500003 0.40600002 1.233 10261650
-0.31 0.40600002 1.233 10261650
-0.30400002 0.40600002 1.233 10327443
-0.29900002 0.40600002 1.2340001 10327443
-0.294 0.40600002 1.2340001 10261650
-0.28800002 0.40500003 1.2340001 10195857
-0.33200002 0.41300002 1.2340001 8879996
-0.32600001 0.41300002 1.2340001 10064271
-0.32100001 0.41300002 1.2340001 10130836
0.020000001 -0.11000001 1.235 11701626
0.025 -0.11000001 1.238 11504247
0.094000004 -0.10600001 1.2390001 11373691
0.12400001 -0.10600001 1.238 11506569
0.18400002 -0.10600001 1.2360001 11770508
0.074000001 -0.105 1.235 10978419
0.079000004 -0.105 1.2390001 10781038
0.084000006 -0.105 1.238 11110003
0.119 -0.105 1.2370001 11506567
-0.063000001 -0.051000003 1.235 10122337
-0.094000004 0.186 1.235 10855344
-0.089000002 0.23700002 1.235 10855342
-0.089000002 0.24700001 1.238 10789549
0.075000003 0.252 1.235 8881552
0.080000006 0.252 1.238 8812406
0.065000005 0.257 1.235 8881551
0.07 0.257 1.235 8815758
0.075000003 0.257 1.2370001 8881808
0.060000002 0.26200002 1.235 10723756
0.065000005 0.26200002 1.2360001 8947088
0.07 0.26200002 1.2370001 8947088
0.075000003 0.26300001 1.2390001 8881293
0.050000001 0.26700002 1.235 10131621
0.055000003 0.26700002 1.2360001 10065828
0.060000002 0.26700002 1.2370001 10263205
0.065000005 0.26800001 1.238 8947088
0.07 0.26800001 1.2390001 9012879
0.030000001 0.27200001 1.235 10328998
0.035 0.27200001 1.235 10328998
0.040000003 0.27200001 1.235 10197414
0.045000002 0.27200001 1.2360001 10066341
0.050000001 0.273 1.2370001 10066084
0.055000003 0.273 1.2370001 10131620
0.060000002 0.273 1.238 9276310
0.065000005 0.273 1.2390001 8947088
0.025 0.27700001 1.235 10197925
0.030000001 0.27700001 1.2360001 10328998
0.035 0.27700001 1.2360001 10328998
0.040000003 0.27800003 1.2370001 10197414
0.045000002 0.27800003 1.238 10197414
0.050000001 0.27800003 1.2390001 10131878
0.055000003 0.27800003 1.2390001 10131619
0.010000001 0.28200001 1.235 10131619
0.015000001 0.28300002 1.2360001 10263205
0.020000001 0.28300002 1.2360001 10328998
0.025 0.28300002 1.2370001 10197925
0.030000001 0.28300002 1.238 10263205
0.035 0.28300002 1.238 10263205
0.040000003 0.28300002 1.2390001 10131621
-0.085000001 0.289 1.2390001 10592424
0 0.287 1.235 10066081
0.0050000004 0.28800002 1.2360001 10131873
0.010000001 0.28800002 1.238 10131619
0.015000001 0.28800002 1.238 10263205
0.020000001 0.28800002 1.2390001 10263718
0.025 0.28800002 1.2390001 10197925
0.035 0.28800002 1.2390001 10263205
-0.010000001 0.29300001 1.235 9934242
-0.0050000004 0.29300001 1.235 10000033
0 0.29300001 1.2370001 10065826
0.0050000004 0.29300001 1.238 10197411
0.010000001 0.294 1.2390001 10131876
-0.020000001 0.29800001 1.235 10065826
-0.012500001 0.29800001 1.2360001 9868960
-0.0050000004 0.29800001 1.2370001 10000033
0 0.29900002 1.238 10000287
-0.080000006 0.303 1.235 10591909
-0.030000001 0.303 1.235 10131619
-0.022500001 0.3035 1.2360001 10065569
-0.012500001 0.30400002 1.238 9999776
-0.0050000004 0.30400002 1.2390001 10000033
-0.080000006 0.30900002 1.238 10460323
-0.075000003 0.30900002 1.235 10526118
-0.050000001 0.30800003 1.235 10262946
-0.042500004 0.30800003 1.235 10262947
-0.035 0.30900002 1.2360001 10262948
-0.030000001 0.30900002 1.2370001 10197153
-0.022500001 0.30900002 1.2385001 9999775
-0.075000003 0.31400001 1.2370001 10460323
-0.067500003 0.31400001 1.2360001 10328738
-0.057500005 0.31400001 1.2355001 10328739
-0.050000001 0.31400001 1.2360001 10262946
-0.042500004 0.31400001 1.2365 10197153
-0.035 0.31400001 1.2370001 10197153
-0.030000001 0.31400001 1.238 10131360
-0.025 0.31400001 1.2390001 10131360
0.076000005 0.31400001 1.235 9465181
-0.080000006 0.31500003 1.2390001 10526116
-0.065000005 0.31900001 1.2370001 10328737
-0.057500005 0.31900001 1.2365 10262944
-0.050000001 0.31900001 1.2370001 10197152
-0.075000003 0.32000002 1.238 10394530
-0.07 0.32000002 1.2370001 10460323
-0.042500004 0.32000002 1.2385001 10065824
-0.067500003 0.32500002 1.2385001 10394531
-0.057500005 0.32500002 1.2385001 10197153
-0.050000001 0.32500002 1.2390001 10197153
-0.065000005 0.33100003 1.2390001 10263201
-0.057500005 0.33000001 1.2385001 10197151
-0.12100001 0.33600003 1.2360001 2893870
-0.126 0.34100002 1.235 2828590
-0.12100001 0.34100002 1.2370001 2828590
0.071000002 0.34100002 1.2390001 9399129
-0.13100001 0.34600002 1.235 2960176
-0.126 0.347 1.2370001 3618107
-0.12100001 0.347 1.2390001 2828335
-0.14600001 0.35200003 1.235 4209725
-0.141 0.35200003 1.2360001 3222830
-0.13600001 0.35200003 1.2360001 2893611
-0.13100001 0.35200003 1.2370001 3025967
-0.126 0.35300002 1.2390001 2762283
-0.15100001 0.35700002 1.235 10591394
-0.147 0.35800001 1.2370001 4670022
-0.142 0.35800001 1.238 3288110
-0.13600001 0.35800001 1.238 2828332
-0.13100001 0.35800001 1.2390001 3025199
-0.18700001 0.36400002 1.235 3024940
-0.18200001 0.36400002 1.235 2827820
-0.15200001 0.36300001 1.2370001 10459808
-0.147 0.36400002 1.2390001 5393745
-0.142 0.36400002 1.2390001 3353903
-0.13700001 0.36400002 1.2390001 2958894
-0.19800001 0.36900002 1.235 10262168
-0.193 0.36900002 1.2360001 3551541
-0.18800001 0.36900002 1.2360001 2959406
-0.18300001 0.36900002 1.2360001 2761771
-0.15700001 0.36800003 1.235 10262944
-0.15200001 0.36900002 1.238 10459808
-0.147 0.36900002 1.2390001 6775398
-0.20900001 0.37500003 1.235 10394267
-0.20300001 0.37500003 1.2360001 10460060
-0.19800001 0.37500003 1.2360001 10722719
-0.193 0.37500003 1.2370001 3682868
-0.18800001 0.37500003 1.238 3156783
-0.18300001 0.37500003 1.238 2630439
-0.178 0.37500003 1.2370001 2564648
-0.22400001 0.38100001 1.235 10394267
-0.21900001 0.38100001 1.235 10328219
-0.21400002 0.38100001 1.2360001 10393756
-0.20900001 0.38100001 1.2370001 10459547
-0.20400001 0.38100001 1.2370001 10459547
-0.19900002 0.38100001 1.238 10854047
-0.19400001 0.38100001 1.238 3749174
-0.18900001 0.38100001 1.2390001 3091244
-0.178 0.38100001 1.2390001 2433060
-0.23500001 0.38700002 1.235 10262166
-0.23 0.38700002 1.2360001 10262168
-0.22250001 0.38700002 1.2370001 10328217
-0.215 0.38700002 1.238 10394267
-0.21000001 0.38700002 1.2390001 10393754
-0.20400001 0.38700002 1.2390001 10459548
-0.24600001 0.39300001 1.235 10262168
-0.24100001 0.39300001 1.2360001 10262168
-0.23500001 0.39300001 1.2360001 10262425
-0.23 0.39300001 1.2370001 10262425
-0.22250001 0.39300001 1.2385001 10262424
-0.26200002 0.39900002 1.235 10131093
-0.257 0.39900002 1.2360001 10262166
-0.25100002 0.39900002 1.2360001 10262166
-0.24600001 0.39900002 1.2370001 10262166
-0.24100001 0.39900002 1.238 10262166
-0.23600002 0.39900002 1.238 10196888
-0.23100001 0.39900002 1.2390001 10262681
-0.28300002 0.40500003 1.235 10261650
-0.27800003 0.40600002 1.2360001 10261650
-0.273 0.40500003 1.2360001 10065042
-0.26800001 0.40500003 1.2370001 10196373
-0.26200002 0.40500003 1.2370001 10065301
-0.257 0.40500003 1.2370001 10196373
-0.252 0.40500003 1.238 10196373
-0.24700001 0.40500003 1.2390001 10262166
-0.24200001 0.40500003 1.2390001 10262166
-0.31600001 0.41300002 1.235 10261650
-0.31 0.41200003 1.235 10261650
-0.30250001 0.41200003 1.2360001 10261650
-0.294 0.41200003 1.2360001 10261650
-0.289 0.41200003 1.2370001 10196370
-0.28400001 0.41200003 1.2370001 10130834
-0.27900001 0.41200003 1.238 10196628
-0.27400002 0.41100001 1.238 10130580
-0.26800001 0.41200003 1.2390001 9999507
-0.26300001 0.41100001 1.2390001 10131093
-0.25800002 0.41100001 1.2390001 10196374
-0.32700002 0.41900003 1.2360001 10064271
-0.32200003 0.41900003 1.2360001 10195603
-0.317 0.41900003 1.2370001 10261394
-0.31100002 0.41900003 1.2370001 10195857
-0.30600002 0.41800001 1.2370001 10195856
-0.30000001 0.41800001 1.2370001 10261650
-0.29500002 0.41800001 1.238 10261650
-0.29000002 0.41800001 1.238 10130834
-0.28500003 0.41800001 1.2390001 10196627
-0.27900001 0.41800001 1.2390001 10130834
-0.33800003 0.42000002 1.2360001 9011836
-0.333 0.42000002 1.2360001 9011582
-0.33900002 0.42600003 1.2390001 8946043
-0.33400002 0.42600003 1.238 8879996
-0.32800001 0.42500001 1.2370001 9999248
-0.32200003 0.42500001 1.2370001 9999248
-0.317 0.42500001 1.238 10195856
-0.31200001 0.42500001 1.2390001 10130064
-0.30700001 0.42500001 1.2390001 10195857
-0.32800001 0.43100002 1.238 10064270
-0.32300001 0.43100002 1.238 9999248
-0.31800002 0.43100002 1.2390001 10195856
-0.069000006 -0.12100001 1.2420001 10581599
-0.019000001 -0.115 1.2410001 11701881
-0.014 -0.115 1.2410001 11899260
0.030000001 -0.11100001 1.2420001 11504504
0.089000002 -0.10600001 1.2410001 11176311
0.1 -0.10600001 1.243 11439743
0.10700001 -0.10600001 1.243 11440002
0.11400001 -0.10600001 1.2410001 11506311
0.12900001 -0.10600001 1.24 11506827
0.134 -0.10600001 1.2420001 11441293
0.13900001 -0.10600001 1.243 11441550
-0.090000004 0.24300002 1.2440001 10789548
0.085000001 0.24800001 1.2420001 10386281
-0.12 0.259 1.243 8354432
0.080000006 0.25800002 1.24 8678759
-0.12 0.264 1.2440001 6775401
0.081 0.264 1.2440001 8875107
0.076000005 0.26800001 1.2410001 8881293
0.07 0.273 1.24 8947086
0.076000005 0.27400002 1.2420001 8815500
0.060000002 0.27800003 1.24 8947345
0.065000005 0.27900001 1.24 8947086
0.071000002 0.27900001 1.2410001 8816013
0.076000005 0.27900001 1.2440001 8749191
0.045000002 0.28400001 1.24 10131621
0.051000003 0.28400001 1.2410001 10131876
0.056000002 0.28400001 1.24 10131875
0.061000004 0.28400001 1.2410001 8947600
0.066 0.28400001 1.2420001 8881806
0.071000002 0.28400001 1.2420001 8947086
0.030000001 0.289 1.24 10263205
0.040000003 0.289 1.24 10197412
0.046000004 0.289 1.2410001 10065826
0.051000003 0.289 1.2410001 10000289
0.056000002 0.289 1.2410001 10395302
0.061000004 0.289 1.2420001 8881806
0.076000005 0.28500003 1.2440001 8748161
0.015000001 0.294 1.24 10132132
0.020000001 0.294 1.24 10197412
0.025 0.294 1.2410001 10197668
0.031000001 0.294 1.2410001 10197412
0.036000002 0.294 1.2410001 10328998
0.041000001 0.294 1.2420001 10197412
0.046000004 0.294 1.2420001 10131619
0.066 0.29000002 1.243 8816013
0.071000002 0.29000002 1.243 8881291
-0.085000001 0.29500002 1.2440001 10461095
0.0050000004 0.29900002 1.24 10066080
0.010000001 0.29900002 1.2410001 10131619
0.015000001 0.29900002 1.2410001 10131619
0.051000003 0.29500002 1.243 10066081
0.056000002 0.29500002 1.243 10592425
0.061000004 0.29500002 1.2440001 8947599
0.066 0.29500002 1.2440001 8881806
0.071000002 0.29500002 1.2440001 8816013
0.076000005 0.29500002 1.2440001 8809832
0 0.30400002 1.24 10131616
0.0050000004 0.30400002 1.2410001 10065567
0.020000001 0.30000001 1.2420001 10131619
0.026000001 0.30000001 1.2420001 10066340
0.031000001 0.30000001 1.243 10197667
0.036000002 0.30000001 1.243 10066337
0.041000001 0.30000001 1.2440001 10066339
0.046000004 0.30000001 1.2440001 10066338
0.051000003 0.30000001 1.2440001 10131875
0.056000002 0.30000001 1.2440001 10329509
0.076000005 0.30000001 1.2440001 9268833
-0.012500001 0.30900002 1.24 9934240
-0.0050000004 0.30900002 1.24 10000033
0.010000001 0.30500001 1.2420001 10131619
0.015000001 0.30500001 1.2420001 10131619
0.021000002 0.30500001 1.243 10131619
0.026000001 0.30500001 1.2440001 10197666
0.031000001 0.30500001 1.2440001 10131873
0.036000002 0.30500001 1.2440001 10131619
0.076000005 0.30500001 1.2420001 9334883
0 0.31 1.2410001 9999774
0.0050000004 0.31 1.2410001 10065567
0.010000001 0.31 1.2420001 10197153
0.016000001 0.31 1.243 10197153
0.021000002 0.31 1.2440001 10262948
0.026000001 0.31 1.2440001 10197155
0.076000005 0.31 1.24 9531233
-0.020000001 0.31500003 1.24 9999776
-0.012500001 0.31500003 1.2415001 10000032
-0.0050000004 0.31500003 1.2420001 10000033
0 0.31500003 1.2420001 10000287
0.0050000004 0.31500003 1.243 10000287
0.010000001 0.31600001 1.2440001 10131360
0.016000001 0.31600001 1.2440001 10197153
0.071000002 0.31600001 1.2440001 8944509
-0.080000006 0.32100001 1.2410001 10460323
-0.035 0.32000002 1.24 10066080
-0.030000001 0.32000002 1.2410001 10065567
-0.022500001 0.32000002 1.2415001 9999774
-0.012500001 0.32100001 1.243 9934237
-0.0050000004 0.32100001 1.243 9934240
0 0.32100001 1.243 10000033
0.0050000004 0.32100001 1.2440001 10065569
-0.080000006 0.32600001 1.243 10460323
-0.075000003 0.32600001 1.24 10460323
-0.042500004 0.32500002 1.24 10131616
-0.035 0.32600001 1.2410001 10000287
-0.030000001 0.32600001 1.2420001 10065567
-0.022500001 0.32600001 1.243 9999774
-0.012500001 0.32600001 1.2440001 9933980
-0.080000006 0.33200002 1.243 10395043
-0.075000003 0.33100003 1.2410001 10263457
-0.07 0.33100003 1.24 10263457
-0.050000001 0.33100003 1.24 10131360
-0.042500004 0.33100003 1.2410001 10131360
-0.035 0.33100003 1.243 10131360
-0.030000001 0.33200002 1.2440001 9999774
-0.025 0.33200002 1.2440001 9999774
0.071000002 0.33200002 1.2440001 9267802
-0.075000003 0.33700001 1.2420001 10263714
-0.067500003 0.33600003 1.2405 10263201
-0.057500005 0.33600003 1.2405 10197153
-0.050000001 0.33600003 1.2420001 10197153
-0.042500004 0.33700001 1.243 10065567
-0.035 0.33700001 1.2440001 10131360
0.071000002 0.33700001 1.2440001 9465178
-0.076000005 0.34200001 1.243 10394531
-0.067500003 0.34200001 1.2420001 10197408
-0.057500005 0.34200001 1.2425001 10065823
-0.050000001 0.34200001 1.2440001 10131360
-0.071000002 0.34800002 1.2440001 10197153
-0.065000005 0.34800002 1.2440001 10197153
-0.057500005 0.34750003 1.2435 10131360
-0.12100001 0.35300002 1.2410001 2762797
-0.127 0.35900003 1.2410001 2697004
-0.12200001 0.35900003 1.243 2631212
-0.132 0.36400002 1.24 3090993
-0.127 0.36400002 1.243 2893614
-0.142 0.36900002 1.24 3485489
-0.13700001 0.36900002 1.24 2959406
-0.12200001 0.36500001 1.2440001 2696750
-0.132 0.37 1.2420001 3025200
-0.127 0.37 1.2440001 2894128
-0.15200001 0.37500003 1.24 10459809
-0.148 0.37500003 1.2420001 8157053
-0.142 0.37500003 1.2420001 3420210
-0.13700001 0.37500003 1.2420001 3156272
-0.132 0.37600002 1.2440001 2893614
-0.18400002 0.38100001 1.24 2499623
-0.15800001 0.38100001 1.2410001 10459809
-0.15300001 0.38100001 1.243 10328222
-0.148 0.38100001 1.243 9736083
-0.14300001 0.38100001 1.2440001 3551282
-0.13800001 0.38100001 1.2440001 2894640
-0.19900002 0.38700002 1.24 10722975
-0.19400001 0.38700002 1.24 3683124
-0.18900001 0.38700002 1.2410001 3090988
-0.18400002 0.38700002 1.2410001 2564900
-0.17900001 0.38600001 1.24 2367522
-0.15800001 0.38700002 1.2420001 10459296
-0.15300001 0.38700002 1.2440001 10525088
-0.215 0.39300001 1.24 10262681
-0.20750001 0.39300001 1.2410001 10328217
-0.2 0.39300001 1.2410001 10525339
-0.192 0.39300001 1.2420001 3485489
-0.18400002 0.39300001 1.2420001 2498853
-0.17900001 0.39300001 1.2420001 2367267
-0.22600001 0.39900002 1.24 10262681
-0.22100002 0.39900002 1.24 10328474
-0.21600001 0.39900002 1.2410001 10393754
-0.20750001 0.39900002 1.2415001 10328218
-0.2 0.39900002 1.2420001 10459803
-0.19250001 0.39900002 1.243 3419695
-0.185 0.39900002 1.2440001 2498852
-0.17900001 0.39900002 1.2440001 2367521
-0.17400001 0.39800003 1.243 3157039
-0.23700002 0.40500003 1.24 10131095
-0.23100001 0.40500003 1.2410001 10196888
-0.22600001 0.40500003 1.2420001 10196888
-0.22100002 0.40500003 1.243 10196888
-0.21600001 0.40500003 1.243 10262681
-0.21100001 0.40500003 1.2440001 10262681
-0.20600002 0.40500003 1.2440001 10327961
-0.2 0.40500003 1.2440001 10393754
-0.19500001 0.40500003 1.2440001 3748913
-0.25300002 0.41100001 1.24 10262167
-0.24700001 0.41100001 1.24 10262168
-0.24200001 0.41100001 1.2410001 10196375
-0.23700002 0.41100001 1.2420001 10196375
-0.23200001 0.41100001 1.243 10262168
-0.22700001 0.41100001 1.2440001 10262681
-0.22200002 0.41100001 1.2440001 10262681
-0.21600001 0.41100001 1.2440001 10327961
-0.27400002 0.41800001 1.24 10065041
-0.26900002 0.41700003 1.24 10065299
-0.264 0.41800001 1.2410001 10196886
-0.25800002 0.41700003 1.2410001 10130582
-0.25300002 0.41700003 1.2410001 10262168
-0.24800001 0.41700003 1.2420001 10196375
-0.24300002 0.41700003 1.243 10196375
-0.23800001 0.41700003 1.2440001 10196375
-0.23200001 0.41700003 1.2440001 10262168
-0.296 0.42400002 1.24 10195857
-0.29100001 0.42400002 1.24 10261650
-0.28500003 0.42400002 1.24 10261650
-0.28 0.42400002 1.2410001 10195857
-0.27250001 0.42400002 1.2415001 10130834
-0.264 0.42400002 1.243 10196627
-0.259 0.42400002 1.243 10130580
-0.25400001 0.42400002 1.2440001 10196373
-0.24900001 0.42300001 1.2440001 10262166
-0.30100003 0.42500001 1.24 10195857
-0.34 0.43300003 1.2410001 9077116
-0.33400002 0.43200001 1.24 8814458
-0.31300002 0.43100002 1.24 10130063
-0.30700001 0.43100002 1.24 10065040
-0.30200002 0.43100002 1.2410001 10065040
-0.29700002 0.43100002 1.2420001 10064784
-0.29100001 0.43000001 1.2420001 9999248
-0.28600001 0.43000001 1.243 10065041
-0.28100002 0.43000001 1.243 10130834
-0.27250001 0.43000001 1.2435 10130579
-0.26500002 0.43000001 1.2440001 10065300
-0.33500001 0.43900001 1.2420001 8814203
-0.33000001 0.43800002 1.2410001 9932685
-0.324 0.43700001 1.24 9998992
-0.31900001 0.43700001 1.2410001 10064273
-0.31300002 0.43700001 1.2420001 10195858
-0.30800003 0.43700001 1.2420001 9999248
-0.303 0.43700001 1.243 10064784
-0.29700002 0.43700001 1.243 9999248
-0.29200003 0.43700001 1.2440001 9999248
-0.287 0.43600002 1.2440001 10065041
-0.28100002 0.43600002 1.2440001 10130579
-0.27600002 0.43600002 1.2440001 10130580
-0.33000001 0.44400004 1.2420001 9998478
-0.324 0.44300002 1.2410001 10064017
-0.31900001 0.44300002 1.2420001 10130064
-0.31400001 0.44300002 1.243 10130064
-0.30800003 0.44300002 1.243 10130064
-0.303 0.44300002 1.2440001 10195857
-0.29800001 0.44300002 1.2440001 10129810
-0.33600003 0.44500002 1.243 8682360
-0.32000002 0.44900003 1.243 10064271
-0.31500003 0.44900003 1.2440001 10130064
-0.30900002 0.44900003 1.2440001 10195857
-0.33100003 0.45000002 1.243 9932684
-0.32500002 0.45000002 1.243 9933201
-0.32600001 0.45600003 1.2440001 9933201
-0.084000006 -0.126 1.2460001 11502957
-0.064000003 -0.12100001 1.2470001 10845287
-0.010000001 -0.116 1.2460001 12031105
-0.0050000004 -0.116 1.2490001 12031105
0.035 -0.11100001 1.248 11570554
0.040000003 -0.11100001 1.2490001 11833726
0.18000001 -0.112 1.248 11441553
0.14500001 -0.10600001 1.245 11507857
0.15000001 -0.10700001 1.248 11442065
0.18000001 -0.10700001 1.245 12230028
-0.12 0.25400001 1.245 9801879
-0.090000004 0.25400001 1.2460001 10789549
0.081 0.27000001 1.2470001 9531488
0.081 0.27500001 1.248 9926247
0.076000005 0.29000002 1.245 8679276
-0.086000003 0.30200002 1.2490001 10395556
0.061000004 0.30000001 1.245 8881551
0.066 0.30000001 1.245 8881549
0.071000002 0.30100003 1.245 8881034
0.041000001 0.30600002 1.245 10066080
0.046000004 0.30600002 1.245 10066339
0.051000003 0.30600002 1.2460001 10066080
0.056000002 0.30600002 1.2460001 9605529
0.061000004 0.30600002 1.2460001 8881549
0.066 0.30600002 1.2470001 8881293
0.071000002 0.30600002 1.245 8881033
0.031000001 0.31100002 1.245 10262946
0.036000002 0.31100002 1.245 10262946
0.041000001 0.31100002 1.2460001 10131360
0.046000004 0.31100002 1.2460001 10197155
0.051000003 0.31100002 1.2470001 9934494
0.056000002 0.31100002 1.2470001 8816013
0.061000004 0.31100002 1.2470001 8881291
0.066 0.31100002 1.2470001 8947084
0.071000002 0.31100002 1.245 9011074
0.021000002 0.31600001 1.245 10197155
0.026000001 0.31600001 1.245 10197155
0.031000001 0.31600001 1.2460001 10131360
0.036000002 0.317 1.2470001 10131360
0.041000001 0.317 1.248 10131360
0.046000004 0.317 1.2490001 9999776
0.051000003 0.317 1.2490001 10131360
0.056000002 0.317 1.2490001 8881291
0.061000004 0.317 1.2490001 8880777
0.066 0.317 1.248 9077642
0.011000001 0.32100001 1.245 10131362
0.016000001 0.32100001 1.2460001 10131362
0.021000002 0.32200003 1.2460001 10066081
0.026000001 0.32200003 1.2470001 10066080
0.031000001 0.32200003 1.248 10065569
0.036000002 0.32200003 1.2490001 10131362
0.041000001 0.32200003 1.2490001 10131362
0.066 0.32300001 1.2490001 8946310
0.071000002 0.32200003 1.245 8547689
-0.0050000004 0.32700002 1.245 9933979
0 0.32600001 1.245 10065565
0.0050000004 0.32700002 1.2460001 10131360
0.011000001 0.32700002 1.2470001 10131360
0.016000001 0.32700002 1.248 10131360
0.021000002 0.32700002 1.248 10066080
0.026000001 0.32800001 1.2490001 10066080
0.071000002 0.32700002 1.245 8284256
-0.020000001 0.33200002 1.245 9933981
-0.012500001 0.33200002 1.245 9868188
-0.0050000004 0.33200002 1.2460001 9868701
0 0.33200002 1.2470001 9933981
0.0050000004 0.333 1.248 10065567
0.011000001 0.333 1.2490001 10131360
-0.030000001 0.33700001 1.245 9999774
-0.022500001 0.33700001 1.2455001 9933981
-0.012500001 0.33750004 1.2465 9933980
-0.0050000004 0.33800003 1.248 9999772
0 0.33800003 1.2490001 9934235
-0.11700001 0.34400001 1.248 3157300
-0.042500004 0.34300002 1.245 10065567
-0.035 0.34300002 1.2460001 10065567
-0.030000001 0.34300002 1.2460001 9999774
-0.022500001 0.34300002 1.2470001 9868188
-0.012500001 0.34350002 1.2485001 9802394
-0.0050000004 0.34400001 1.2490001 9868186
-0.076000005 0.34800002 1.2460001 10262946
-0.050000001 0.34800002 1.245 10131360
-0.042500004 0.34800002 1.2460001 10065567
-0.035 0.34800002 1.2460001 9999774
-0.030000001 0.34800002 1.2470001 9933981
-0.022500001 0.34900001 1.248 9868188
-0.015000001 0.34900001 1.2490001 9933981
-0.11700001 0.35000002 1.2490001 2960176
-0.076000005 0.354 1.248 10262946
-0.071000002 0.354 1.2460001 10328739
-0.066 0.35300002 1.245 10197153
-0.061000004 0.35300002 1.245 10131360
-0.055000003 0.354 1.2460001 10065567
-0.050000001 0.354 1.2460001 10131360
-0.042500004 0.354 1.2475001 9999774
-0.035 0.354 1.248 9868188
-0.030000001 0.354 1.248 9868445
-0.025 0.354 1.2490001 9868188
-0.061000004 0.35900003 1.2470001 10131358
-0.056000002 0.35900003 1.2470001 10065822
-0.051000003 0.35900003 1.248 9868701
-0.045000002 0.35900003 1.248 10000287
-0.071000002 0.36000001 1.248 10197151
-0.066 0.36000001 1.248 10131358
-0.040000003 0.36000001 1.2490001 9934494
-0.035 0.36000001 1.2490001 9868701
-0.066 0.36500001 1.2490001 10131359
-0.061000004 0.36500001 1.248 10065566
-0.056000002 0.36500001 1.2490001 10065566
-0.051000003 0.36500001 1.2490001 9933981
-0.12200001 0.37100002 1.2460001 2433577
-0.127 0.37600002 1.2460001 3025200
-0.12200001 0.37600002 1.2470001 2499370
-0.133 0.38100001 1.245 2697262
-0.12800001 0.38200003 1.2470001 2828848
-0.123 0.38200003 1.248 2302505
-0.148 0.38700002 1.245 10656928
-0.14300001 0.38700002 1.2460001 3682868
-0.13800001 0.38700002 1.2460001 3156786
-0.133 0.38700002 1.2470001 2762542
-0.12800001 0.38800001 1.248 2959407
-0.123 0.38800001 1.2490001 2301992
-0.15900001 0.39300001 1.245 10459296
-0.15400001 0.39300001 1.2460001 10590881
-0.148 0.39300001 1.2470001 10656928
-0.14300001 0.39300001 1.2470001 3814453
-0.13800001 0.39300001 1.2470001 3157297
-0.133 0.39300001 1.248 2697004
-0.15400001 0.39900002 1.248 10459295
-0.149 0.39900002 1.2490001 10591136
-0.14400001 0.39900002 1.2490001 4011833
-0.13800001 0.39900002 1.2490001 3091505
-0.17400001 0.40400001 1.245 3025452
-0.15900001 0.40000001 1.2490001 10393503
-0.19000001 0.40500003 1.2460001 3156779
-0.185 0.40500003 1.2460001 2564899
-0.18000001 0.40500003 1.2460001 2499107
-0.21100001 0.41100001 1.245 10262168
-0.20600002 0.41100001 1.245 10262168
-0.20100001 0.41100001 1.245 10262424
-0.19600001 0.41100001 1.245 3682865
-0.19100001 0.41100001 1.2470001 3156522
-0.185 0.41100001 1.2470001 2630694
-0.18000001 0.41100001 1.248 2498853
-0.22700001 0.41700003 1.245 10262168
-0.22200002 0.41700003 1.2460001 10262168
-0.21700001 0.41700003 1.2460001 10262168
-0.21200001 0.41700003 1.2460001 10327961
-0.20600002 0.41700003 1.2460001 10262425
-0.20100001 0.41700003 1.2470001 10262681
-0.19600001 0.41700003 1.248 4472382
-0.19100001 0.41700003 1.2490001 3288108
-0.186 0.41700003 1.2490001 2695973
-0.17500001 0.41700003 1.2490001 3221804
-0.24400002 0.42300001 1.245 10262168
-0.23800001 0.42300001 1.245 10262168
-0.23300001 0.42300001 1.2460001 10196375
-0.22800002 0.42400002 1.2470001 10262168
-0.223 0.42300001 1.2470001 10262168
-0.21800001 0.42300001 1.248 10327961
-0.21200001 0.42300001 1.248 10262168
-0.20700002 0.42300001 1.248 10327961
-0.20200001 0.42300001 1.248 10196631
-0.19700001 0.42300001 1.2490001 5459531
-0.24900001 0.42900002 1.245 10130580
-0.24400002 0.42900002 1.2460001 10196375
-0.23300001 0.42900002 1.2470001 10262168
-0.22800002 0.42900002 1.248 10130582
-0.26000002 0.43000001 1.245 10196373
-0.25400001 0.43000001 1.245 10130580
-0.23900001 0.43000001 1.2470001 10130582
-0.223 0.43000001 1.2490001 10196375
-0.27100003 0.43600002 1.245 10065300
-0.266 0.43600002 1.2460001 10065300
-0.26000002 0.43600002 1.2470001 9999507
-0.25500003 0.43600002 1.2470001 10130580
-0.25 0.43600002 1.248 10065300
-0.245 0.43600002 1.248 10196373
-0.23900001 0.43600002 1.248 10196375
-0.23400001 0.43600002 1.2490001 10196375
-0.34200001 0.44000003 1.245 9011068
-0.29300001 0.44300002 1.245 9998994
-0.287 0.44200003 1.245 9999507
-0.28200001 0.44300002 1.2460001 9999506
-0.27700001 0.44200003 1.2460001 9999249
-0.27200001 0.44300002 1.248 10065299
-0.266 0.44200003 1.248 10065300
-0.26100001 0.44200003 1.248 10064789
-0.25600001 0.44200003 1.2490001 10130839
-0.25 0.44200003 1.2490001 10130582
-0.245 0.44200003 1.2490001 10064789
-0.34200001 0.44600001 1.245 8945530
-0.30400002 0.44900003 1.245 10064271
-0.29800001 0.44900003 1.245 9998481
-0.29300001 0.44800001 1.245 9998994
-0.28800002 0.44800001 1.2460001 9933201
-0.28300002 0.44900003 1.2470001 9933457
-0.27700001 0.44800001 1.2470001 9999248
-0.27200001 0.44900003 1.2490001 10065041
-0.34300002 0.45200002 1.248 8814200
-0.33700001 0.45100003 1.2460001 8879996
-0.33800003 0.45700002 1.2470001 8617080
-0.33200002 0.45600003 1.245 9998478
-0.32100001 0.45600003 1.245 10064017
