# .PCD v0.7 - Point Cloud Data file format
VERSION 0.7
FIELDS x y z
SIZE 4 4 4
TYPE F F F
COUNT 1 1 1
WIDTH 906
HEIGHT 1
VIEWPOINT 0 0 0 1 0 0 0
POINTS 906
DATA ascii
0.017000001 0.053000003 0.109
-0.051545452 0.053999998 0.11763637
-0.045750003 0.053517841 0.11714286
-0.036105264 0.053842112 0.11778947
-0.029750001 0.053000003 0.11775
-0.001 0.053000003 0.11400001
0.0064222217 0.053177759 0.11577777
0.015194033 0.053111915 0.11441797
0.024373138 0.053619351 0.11481341
0.034531247 0.054007746 0.11539067
0.041414637 0.054292679 0.11680488
-0.054209884 0.053925887 0.12507403
-0.044968493 0.053621996 0.12437795
-0.035078261 0.053582557 0.12454788
-0.025974026 0.053012967 0.12619478
-0.014413793 0.053137921 0.12793103
-0.004428572 0.052999984 0.12742859
0.0051769908 0.053300854 0.12491152
0.014470593 0.053610247 0.12423529
0.024559058 0.053795222 0.12424414
0.034307696 0.053999934 0.12422306
0.044044644 0.054196369 0.1245447
0.050555561 0.054666668 0.12788889
-0.062783793 0.053972986 0.13570271
-0.055408176 0.053540774 0.13436733
-0.044881795 0.053663589 0.13413638
-0.03491579 0.053231556 0.13435793
-0.024956139 0.053017519 0.13434203
-0.014447621 0.053438049 0.1342763
-0.0048787873 0.053020179 0.13397986
0.004650943 0.053603727 0.13463205
0.014438601 0.05376311 0.13426316
0.0244902 0.053911708 0.13424516
0.034596339 0.053999942 0.13422026
0.044339802 0.053999942 0.13406797
0.053333335 0.054222193 0.13518061
-0.072090916 0.053999998 0.1470909
-0.065273978 0.053958863 0.14468494
-0.055223696 0.053368401 0.14432895
-0.044999994 0.053804304 0.14413048
-0.035014085 0.05316899 0.14418304
-0.025000002 0.053232294 0.14444447
-0.014484539 0.05375253 0.14454648
-0.0048695644 0.053152155 0.14440228
0.0046219509 0.053926781 0.14448783
0.014659092 0.053954493 0.14440908
0.024337206 0.053988323 0.14420936
0.034441859 0.054011583 0.14436053
0.044415735 0.05383141 0.14424729
0.054564722 0.054023478 0.14455305
0.062142856 0.054000013 0.14551428
-0.080333345 0.054000001 0.15733333
-0.0745814 0.053906973 0.15474419
-0.065846153 0.053584587 0.15423079
-0.055652175 0.053695627 0.15434778
-0.04506024 0.053891513 0.15451801
-0.035014492 0.053043455 0.1541159
-0.024930233 0.053511593 0.1546628
-0.01403297 0.053670291 0.1552528
-0.0049215676 0.052666664 0.15557842
0.0045666667 0.053274963 0.15528347
0.014384619 0.05374996 0.15512499
0.024603961 0.053752434 0.15508902
0.034278352 0.053762835 0.15455668
0.044176474 0.053294085 0.15298529
0.054425932 0.053833317 0.1528333
0.063342869 0.054000013 0.15257144
-0.08379364 0.05301588 0.16663492
-0.075071432 0.052971423 0.16484283
-0.065467529 0.052714262 0.16389614
-0.055605266 0.052934207 0.16353942
-0.044945206 0.052506842 0.16220549
-0.035090912 0.052309081 0.16130909
-0.025099998 0.052549984 0.16075005
-0.015558823 0.052500021 0.16005881
0.012 0.053000003 0.16000001
0.047000002 0.23100001 0.73550004
0.052000001 0.23200001 0.74700004
0.057500005 0.23225001 0.75500005
-0.11100001 0.23300001 0.76900005
0.064199999 0.23320003 0.76460004
-0.123 0.23550001 0.77600002
-0.1155 0.23400001 0.77149999
0.071833335 0.23383336 0.77500004
-0.19450001 0.23450002 0.78575003
-0.133 0.23600002 0.78900003
-0.12650001 0.23500001 0.78324997
-0.11533334 0.233 0.78066665
-0.1075 0.23300001 0.78050005
0.076500006 0.23250002 0.78375006
0.081 0.23550001 0.78700006
0.078000002 0.24100001 0.78600001
-0.18500002 0.23525001 0.79299998
-0.17466666 0.23633336 0.79566669
-0.16800001 0.23700002 0.79900002
-0.15100001 0.23800001 0.79300004
-0.1455 0.23750001 0.79250002
-0.13575001 0.23650002 0.79550004
-0.12433334 0.23466669 0.7966668
-0.11433334 0.23433335 0.79666668
-0.10466667 0.23466669 0.79766673
-0.097000003 0.23300001 0.79400003
0.078000002 0.23 0.79500002
0.08433333 0.23466669 0.79416674
0.092000008 0.23800001 0.79900002
0.085749999 0.24275002 0.79500002
0.092000008 0.24100001 0.79800004
-0.18450001 0.23450002 0.801
-0.17666668 0.23533334 0.80566669
-0.164 0.23750001 0.80250001
-0.156 0.23799999 0.80533338
-0.14533335 0.23733334 0.80333334
-0.13800001 0.23600002 0.80000001
0.086750001 0.23250002 0.80400002
0.095000006 0.23733334 0.80500007
0.094666667 0.24433334 0.80100006
0.10120001 0.24480002 0.80720007
-0.18533333 0.23500001 0.81400007
-0.17500001 0.23566668 0.81433344
-0.16400002 0.23700003 0.81266671
-0.15433335 0.23700003 0.81366664
-0.1455 0.23600002 0.81200004
-0.13525 0.23625001 0.81375003
-0.12550001 0.23700002 0.81550002
-0.11525001 0.23650001 0.81599998
-0.10550001 0.23600002 0.81650007
-0.096333332 0.23533334 0.81366664
0.086500004 0.23050001 0.81500006
0.093500003 0.23375002 0.81500006
0.1 0.23800001 0.81200004
0.10550001 0.24250001 0.81450009
0.108 0.25100002 0.81700003
0.19900002 0.14400001 0.82500005
-0.39200002 0.21800001 0.82900006
-0.38600001 0.2175 0.82900006
-0.21600001 0.23533334 0.82333332
-0.20600002 0.23600002 0.82800007
-0.17300001 0.23600002 0.82000005
-0.16475001 0.23675002 0.82400006
-0.15450001 0.23600002 0.82400006
-0.14566667 0.23633336 0.82466674
-0.13600002 0.23700003 0.82800007
-0.12566666 0.23666668 0.82766676
-0.11500001 0.23600002 0.82733339
-0.1065 0.23600002 0.82850003
-0.091000006 0.23600002 0.82900006
-0.084333338 0.23500001 0.82600003
0.094666682 0.23233335 0.82400006
0.10266668 0.23733336 0.82433337
0.108 0.24200001 0.82400006
0.112 0.24300002 0.82800007
-0.38000003 0.21700001 0.83500004
-0.22850001 0.23600002 0.83700001
-0.19475001 0.23700002 0.83275008
-0.18450001 0.23700002 0.8355
-0.176 0.23700003 0.83633333
-0.16533335 0.23666668 0.83666676
-0.15466666 0.23666668 0.83733338
-0.125 0.23600002 0.83850002
-0.11633334 0.23600002 0.83866674
-0.10200001 0.23700002 0.83000004
-0.096500009 0.23600002 0.83000004
-0.082000002 0.23500001 0.83900005
-0.074666671 0.23400001 0.83533335
0.097500004 0.23200001 0.83300006
0.10300001 0.23466666 0.83600003
0.11000001 0.23900001 0.83900005
0.109 0.24100001 0.83200002
0.11400001 0.24200001 0.83700001
-0.37349999 0.21725 0.84375006
-0.36800003 0.21700001 0.84900004
-0.222 0.23650002 0.8405
-0.21550001 0.23700002 0.84400004
-0.20700002 0.23766668 0.84766668
-0.2 0.23800001 0.84900004
-0.14500001 0.23766668 0.8416667
-0.13466667 0.23700003 0.84133339
-0.11000001 0.23600002 0.84000003
-0.10450001 0.23600002 0.84100002
-0.095666669 0.23600002 0.84066671
-0.087500006 0.23550001 0.8405
-0.072000004 0.23400001 0.84900004
0.105 0.23350002 0.84500003
0.11100001 0.23800001 0.84600002
0.11666667 0.24233335 0.84466672
-0.36560002 0.21620002 0.85540009
-0.22525001 0.23650002 0.85350007
-0.21550001 0.23700002 0.8585
-0.19333334 0.23799999 0.85100001
-0.18450001 0.23800001 0.85300004
-0.176 0.23799999 0.85366672
-0.16466668 0.23700003 0.85200006
-0.154 0.23733334 0.85400003
-0.146 0.23800001 0.85750008
-0.13666667 0.23733334 0.85600001
-0.12566668 0.23633336 0.85333329
-0.11466667 0.23533334 0.85133338
-0.104 0.23500001 0.8506667
-0.095500007 0.23500001 0.85200006
-0.085000008 0.23500001 0.85275
-0.076000005 0.23500001 0.85200006
0.10700001 0.23300001 0.85500002
0.1135 0.23750001 0.85250002
0.119 0.24000001 0.85500002
0.12200001 0.24300002 0.85000002
-0.36100003 0.21600001 0.86200005
-0.35550001 0.21775001 0.86450005
-0.22475001 0.23625001 0.86650002
-0.20700002 0.23799999 0.86233336
-0.19633333 0.23833334 0.86533338
-0.18566668 0.23799999 0.86733341
-0.17500001 0.23833334 0.86866665
-0.142 0.23700002 0.86900002
-0.13466668 0.23700003 0.86800003
-0.126 0.23600002 0.86650002
-0.11633334 0.23600002 0.86533338
-0.10533334 0.23466669 0.86233336
-0.094666667 0.23400001 0.86166668
-0.084333338 0.23466669 0.86366671
-0.075500004 0.23500001 0.86450005
-0.066666663 0.23400001 0.86266667
0.10600001 0.23100001 0.86200005
0.11300001 0.23500001 0.86366671
0.12100001 0.23900001 0.86500007
0.12400001 0.24200001 0.86000001
-0.35533333 0.21499999 0.87433338
-0.21450001 0.23700002 0.87100005
-0.20633334 0.23766668 0.87566668
-0.19900002 0.23800001 0.87800002
-0.16433334 0.23799999 0.87000006
-0.15366668 0.23799999 0.87066674
-0.14600001 0.23800001 0.87000006
-0.11250001 0.23500001 0.87700003
-0.105 0.23400001 0.87450004
-0.096000008 0.23400001 0.87466669
-0.085333325 0.23400001 0.87433338
-0.07433334 0.23333335 0.87433338
-0.065500006 0.2335 0.87400007
0.10700001 0.23 0.87100005
0.11575 0.23450001 0.87475002
0.12200001 0.23900001 0.87600005
0.127 0.24150002 0.87100005
0.17900001 0.123 0.88100004
-0.35250002 0.21350002 0.88400006
-0.34475002 0.21700001 0.88475001
-0.21533334 0.23633336 0.88333338
-0.20700002 0.23700002 0.88850009
-0.19400001 0.2385 0.88050008
-0.18533333 0.23900001 0.88300008
-0.17433333 0.23900001 0.88433337
-0.16333334 0.23900001 0.88566667
-0.15400001 0.2385 0.88550007
-0.14466667 0.23799999 0.88433337
-0.13333334 0.23700003 0.88366669
-0.12400001 0.23700002 0.88250005
-0.11800001 0.23600002 0.88000005
-0.095500007 0.23400001 0.88750005
-0.086333334 0.23400001 0.88866681
0.1155 0.23100001 0.88400006
0.1235 0.23600002 0.8867501
0.13250001 0.2385 0.88750005
0.126 0.24000001 0.88100004
0.13000001 0.24100001 0.88200003
0.177 0.12800001 0.89100003
-0.22000001 0.17900001 0.89600003
0.1075 0.19900002 0.89850008
0.11325001 0.19700001 0.89850003
0.12200001 0.19900002 0.89850008
0.099000007 0.20450002 0.89850008
0.10566667 0.20416667 0.89766669
0.115 0.20425002 0.89725006
0.12433334 0.20466669 0.89783341
0.132 0.20700002 0.89900005
0.14600001 0.20700002 0.89700001
-0.34400001 0.21400003 0.89333338
-0.33625004 0.21700001 0.8955
-0.20200001 0.23800001 0.89100003
-0.19466668 0.23799999 0.89333338
-0.18650001 0.23900001 0.898
-0.15433334 0.23799999 0.89899999
-0.14500001 0.23800001 0.89850008
-0.13533334 0.23700003 0.89733338
-0.126 0.23700002 0.89750004
-0.116 0.23566668 0.89333338
0.125 0.23275001 0.89200002
0.13350001 0.23375 0.89275008
0.13600001 0.156 0.90900004
0.11666667 0.16600001 0.90866679
0.12557143 0.16471429 0.90828574
0.134 0.16366668 0.90833336
0.1425 0.16533335 0.90866667
0.10575001 0.17525001 0.90825003
0.11366668 0.17433333 0.90633351
0.12466666 0.17433335 0.90522224
0.134 0.17466666 0.90616673
0.14399999 0.17511111 0.90811116
0.15500002 0.17900001 0.90833336
0.096666671 0.18666668 0.90700006
0.1045 0.18516667 0.90483332
0.11344445 0.18466666 0.90311116
0.12444445 0.1848889 0.90244454
0.134 0.18550001 0.9040001
0.14400001 0.18433332 0.90700006
0.1532 0.18560001 0.90680009
0.087000005 0.19533335 0.90733337
0.095750004 0.19525 0.90300006
0.1036 0.19480002 0.90080005
0.11425001 0.19300002 0.90075004
0.12433334 0.19399999 0.90050006
0.134 0.1945 0.90200007
0.14377779 0.19355556 0.90511119
0.15100001 0.19366668 0.90466672
-0.32500002 0.20700002 0.90000004
0.076000005 0.20666666 0.90766668
0.084444441 0.20344447 0.90466678
0.093200006 0.20380001 0.9012
0.12800001 0.2 0.90000004
0.13516667 0.20349999 0.9003334
0.14328572 0.20271429 0.90128577
-0.33400005 0.21340001 0.90340006
-0.32780001 0.21660002 0.90559995
0.091000006 0.21000001 0.90000004
-0.20466667 0.23733334 0.90400004
-0.19600001 0.23800001 0.90800005
-0.18100001 0.23900001 0.90000004
-0.17400001 0.23900001 0.90100002
-0.16600001 0.23900001 0.9003334
-0.112 0.23550001 0.90700006
-0.178 0.24000001 0.90200007
0.14500001 0.1154 0.91860008
0.15400001 0.115 0.91850007
0.16000001 0.11700001 0.91900003
0.18150002 0.1155 0.91700006
0.13450001 0.12550001 0.9181667
0.14411111 0.12400001 0.91633332
0.15533334 0.12422223 0.91666669
0.16433334 0.12700002 0.91866666
0.17749999 0.12550001 0.917
0.11700001 0.13766669 0.91833335
0.12571429 0.13614286 0.91671425
0.13428572 0.13442859 0.91571438
0.14399999 0.13500002 0.91444451
0.15512499 0.13487501 0.91600007
0.16466667 0.13566668 0.9181667
0.17220001 0.1348 0.91640007
0.10700001 0.14600001 0.91900003
0.11514287 0.14485717 0.91642857
0.12522222 0.14566669 0.91311115
0.13450001 0.14566667 0.912
0.14342856 0.14471431 0.91285717
0.15550001 0.14450002 0.91500002
0.1646 0.14400001 0.91640007
0.17050001 0.14450002 0.91450006
0.10483333 0.15483333 0.91733336
0.11387501 0.15375 0.91387504
0.125 0.15450001 0.91050011
0.13333334 0.154 0.91000003
0.1445 0.15375 0.91112506
0.15511112 0.15355557 0.91322219
0.16500001 0.154 0.91383338
0.089000002 0.16900001 0.91900003
0.09480001 0.1654 0.91760004
0.10333333 0.16433334 0.91377789
0.11283334 0.16250001 0.9106667
0.123 0.16000001 0.91000003
0.14666666 0.16166668 0.9103334
0.15544444 0.1648889 0.91233337
0.16500001 0.16325001 0.91300011
0.088 0.17575002 0.91675001
0.095375009 0.17587501 0.91300005
0.10200001 0.17266667 0.91133338
0.15516667 0.17400001 0.91050005
0.076666676 0.18633334 0.91866666
0.084874995 0.18362501 0.91537499
0.093333341 0.18366669 0.9106667
0.067000002 0.19900002 0.91900003
0.074750006 0.19500002 0.91550004
0.083500005 0.19233334 0.91133332
-0.32350004 0.20900001 0.91200006
-0.30900002 0.20500001 0.91300005
0.064999998 0.20583333 0.91616672
0.072666667 0.20366669 0.91133332
-0.32366669 0.21466668 0.91333342
-0.31766668 0.21666668 0.91733336
0.061500002 0.21100001 0.91400003
-0.20550001 0.23650002 0.91600001
-0.19550002 0.23750001 0.91500008
-0.18550001 0.23900001 0.91300005
-0.17633335 0.23900001 0.91566676
-0.16500002 0.23900001 0.91533333
-0.155 0.23800001 0.91350007
-0.14500001 0.23700003 0.91133338
-0.13366668 0.23700003 0.91166669
-0.12450001 0.23700002 0.91200006
-0.11800001 0.23600002 0.91000003
0.148 0.086666673 0.92866677
0.155 0.08600001 0.92850006
0.16414288 0.085571431 0.92828566
0.1736 0.0854 0.92879999
0.13640001 0.096000001 0.92800009
0.14522225 0.095333353 0.92600006
0.15466668 0.095333338 0.92516679
0.164 0.095333345 0.92488891
0.17400001 0.095666677 0.92666674
0.18000001 0.094000004 0.92900002
0.127 0.105 0.92850006
0.13383333 0.1045 0.92516667
0.14483334 0.104 0.92266673
0.15400001 0.104 0.92150003
0.164 0.10433334 0.92283338
0.17400001 0.10500001 0.92525005
0.18140002 0.10400001 0.92700005
0.11750001 0.11800001 0.92800003
0.12414286 0.11371429 0.92614287
0.13355558 0.11333333 0.92177784
0.14375001 0.11075001 0.92025006
0.15400001 0.11000001 0.92000002
0.16437501 0.11325002 0.92150003
0.17533334 0.11400001 0.92288899
0.18300001 0.11000001 0.92300004
0.107 0.12766667 0.92833334
0.11544445 0.12466666 0.92499995
0.12433334 0.1245 0.92183334
0.131 0.122 0.92033339
0.16633335 0.12233334 0.92033339
0.1726 0.1242 0.92040002
0.10550001 0.13516669 0.92500001
0.11366668 0.13416666 0.92083341
0.12200001 0.132 0.92000002
0.094666667 0.145 0.92766666
0.10300001 0.14328572 0.92314291
0.085750006 0.15775001 0.92675
0.093625002 0.15412501 0.92400008
0.10133333 0.15166669 0.92066669
0.079000004 0.1645 0.92850006
0.085714296 0.16471431 0.9234286
0.093000002 0.16100001 0.92000002
0.068000004 0.178 0.92900002
0.07525 0.17412502 0.92575002
0.082750008 0.17300001 0.92150009
0.066000007 0.18600002 0.92680007
0.0735 0.18316667 0.92249995
0.056000002 0.19700001 0.92800003
0.063571431 0.19500002 0.92371428
0.071000002 0.192 0.92000002
-0.30900002 0.20700002 0.92500007
0.049000002 0.208 0.92800003
0.054800004 0.20480001 0.9252001
0.060000002 0.20333333 0.92199999
-0.32000002 0.21100001 0.92000002
-0.31420001 0.21420002 0.92280006
-0.30875003 0.21650001 0.92650008
0.052000001 0.21100001 0.92100006
-0.19333334 0.23733334 0.92233342
-0.18400002 0.23800001 0.92650008
-0.17500001 0.23833334 0.92866677
-0.15350001 0.23800001 0.92850006
-0.14500001 0.23700002 0.92600006
-0.13566667 0.23666668 0.92533332
-0.126 0.23650002 0.92600006
-0.11633334 0.23566668 0.92433339
0.19700001 0.033 0.93900007
0.1552 0.057400007 0.9382
0.16440001 0.055800002 0.93780005
0.17388888 0.055000007 0.93800014
0.18266666 0.057666671 0.93800002
0.14566667 0.065000005 0.93800002
0.15416668 0.064000003 0.93583339
0.16500001 0.064400002 0.93540013
0.17399999 0.064199999 0.93520004
0.185 0.064499997 0.93583339
0.193 0.067000002 0.93900007
0.13666667 0.07500001 0.93766671
0.14450002 0.073500007 0.93483335
0.15388888 0.073333345 0.93288898
0.16500002 0.073444456 0.93233341
0.17483334 0.073666669 0.9320001
0.18455556 0.07388889 0.9335556
0.193 0.074000001 0.93833333
0.12666668 0.087666668 0.93766665
0.13511112 0.084666662 0.93366677
0.14360002 0.0836 0.93080008
0.15333334 0.081 0.93033338
0.16700001 0.081 0.93000007
0.17600001 0.081 0.93000007
0.18455559 0.085111111 0.93288887
0.11700001 0.096000001 0.93900007
0.12442858 0.094857149 0.93542862
0.13200001 0.094750002 0.93125004
0.18650001 0.094750002 0.93350011
0.109 0.108 0.93900007
0.11520001 0.1044 0.93660003
0.12166667 0.10333333 0.93283343
0.18400002 0.1 0.93000007
0.10587501 0.11525001 0.93650007
0.1138 0.11360002 0.93159997
0.12 0.11000001 0.93000007
0.096666671 0.125 0.93833345
0.10383334 0.12433334 0.93283343
0.085666679 0.13666667 0.93833345
0.094000004 0.13355558 0.93500012
0.101 0.133 0.93000007
0.079000004 0.14700001 0.93800008
0.084666669 0.14466667 0.93450016
0.091333337 0.142 0.93166667
0.076200001 0.15480001 0.93640006
0.083999999 0.15333335 0.93100005
0.067000002 0.16525 0.93725008
0.074142866 0.163 0.93300003
0.063750006 0.17487502 0.93450004
0.071000002 0.171 0.93100005
0.055400003 0.18420002 0.93740004
0.06133334 0.18366669 0.93233341
0.048250005 0.19575 0.93725008
0.054600008 0.1934 0.93320006
0.060000002 0.19000001 0.93000007
-0.30700001 0.20900001 0.93200004
-0.29900002 0.20400001 0.93300003
0.038000003 0.20700002 0.93900007
0.045000002 0.20525001 0.93362504
0.053000003 0.20100001 0.93000007
-0.30500004 0.21450001 0.93483335
-0.18433334 0.23700003 0.93766671
-0.16333334 0.23833334 0.93000007
-0.14300001 0.23600002 0.93900007
-0.134 0.23600002 0.93900007
-0.12400001 0.23600002 0.93900007
0.19100001 0.014 0.94700003
0.19400001 0.025 0.94333339
0.156 0.037 0.94900006
0.16460001 0.035399996 0.94780004
0.17533334 0.034999996 0.9476667
0.185 0.037 0.94750005
0.1945 0.035750002 0.94575006
0.14625001 0.046000004 0.94775009
0.15512501 0.044500001 0.94487506
0.16414286 0.043428574 0.94342864
0.17455555 0.044 0.94288892
0.18450002 0.044 0.94416666
0.19425002 0.043750003 0.94637507
0.13566667 0.057666671 0.94733334
0.14388889 0.055333335 0.94400001
0.15400001 0.052000001 0.94100004
0.162 0.051000003 0.94000006
0.18466668 0.053000003 0.94033337
0.19200002 0.055500001 0.94250005
0.12800001 0.065666668 0.94833344
0.1345 0.064999998 0.94500005
0.14133334 0.064000003 0.94100004
0.19400001 0.063000001 0.94100004
0.11800001 0.078000002 0.94900006
0.12550001 0.074625 0.94512504
0.13333334 0.071333326 0.94166666
0.11425001 0.086125001 0.94675004
0.12333333 0.083999999 0.94166666
0.1945 0.084000006 0.94250005
0.10533335 0.095666669 0.94833344
0.1128 0.094600007 0.94360006
0.097666673 0.10733334 0.9476667
0.10485715 0.10428572 0.94342858
0.11150001 0.1 0.94200003
0.09525001 0.115125 0.94462508
0.10200001 0.112 0.94100004
0.085000008 0.125 0.94666672
0.091750011 0.12325 0.94300008
0.075000003 0.13600001 0.94725007
0.082166679 0.13316667 0.94266671
0.069000006 0.14500001 0.94800007
0.075166665 0.14466669 0.94250005
0.065125003 0.154625 0.94537503
0.072000004 0.15150002 0.94200003
0.056250006 0.16575001 0.94675004
0.062400006 0.16440001 0.94220001
0.046000004 0.178 0.94900006
0.053428572 0.17414287 0.94428575
0.044399999 0.1858 0.94660008
0.050750002 0.18325001 0.94250005
0.038500004 0.19500001 0.94800007
0.044 0.19400001 0.94250005
0.034714285 0.20428573 0.94542855
0.042000003 0.2 0.94100004
-0.30133334 0.21233337 0.94400001
-0.2956 0.21720001 0.94480002
0.031000001 0.21100001 0.94200003
-0.17500001 0.23750001 0.94100004
-0.16533335 0.23766668 0.94200009
-0.15600002 0.23700002 0.94200003
-0.149 0.23700002 0.94000006
0.18100001 -0.0050000004 0.95900005
0.18650001 0.0040000002 0.95550001
0.16750002 0.018000001 0.95850003
0.17500001 0.018000001 0.95750004
0.1866 0.015600001 0.95720005
0.19100001 0.018000001 0.95000005
0.14600001 0.029000001 0.95700002
0.15414286 0.026285717 0.95642865
0.16477779 0.025333334 0.95433342
0.17433333 0.025333336 0.95266658
0.18433335 0.025333337 0.95333332
0.19199999 0.025333336 0.95199996
0.13800001 0.037 0.95800006
0.14533333 0.035 0.95466667
0.15366668 0.034333333 0.95100003
0.16000001 0.033 0.95000005
0.18600002 0.033 0.95050001
0.19100001 0.033 0.95000005
0.127 0.048 0.95800006
0.13437501 0.044875003 0.955625
0.1434 0.042600002 0.95139998
0.19900002 0.048 0.95000005
0.119 0.056000002 0.95900005
0.12539999 0.055 0.95559996
0.13280001 0.053600002 0.95180005
0.19900002 0.056000002 0.95000005
0.2 0.052000001 0.95100003
0.1172 0.064199999 0.95660001
0.12360001 0.062600002 0.9528001
0.10600001 0.07766667 0.95733339
0.11412501 0.074374996 0.95350003
0.12200001 0.071000002 0.95000005
0.096000001 0.087000005 0.95900005
0.10333335 0.084333338 0.9550001
0.11100001 0.082000002 0.95100003
0.096125007 0.094374999 0.95537508
0.10433334 0.091333337 0.95133334
0.086600006 0.1064 0.95679998
0.094166674 0.10383334 0.95200008
0.077000007 0.11700001 0.95700002
0.083714284 0.11414286 0.954
0.069000006 0.127 0.95850003
0.074833341 0.12450001 0.95533329
0.081333339 0.12166667 0.95133334
0.067600004 0.13519999 0.95480001
0.073000006 0.13350001 0.95100003
0.056666669 0.14666666 0.9576667
0.063333333 0.1435 0.95366669
0.055 0.15528572 0.95428574
0.061000004 0.15100001 0.95100003
0.045000002 0.16633335 0.95700008
0.050999999 0.16325 0.95375001
0.039000001 0.17700002 0.95650005
0.043800004 0.17380001 0.95360005
0.050000001 0.17 0.95100003
0.035666667 0.18416667 0.95583344
0.042000003 0.18200001 0.95000005
0.027000001 0.19700001 0.95800006
0.033857144 0.19357143 0.95314282
-0.296 0.208 0.95100003
0.024500003 0.20566668 0.95516664
0.031000001 0.20200001 0.95100003
-0.29350001 0.21450001 0.95475006
0.021500003 0.2105 0.95500004
-0.155 0.23600002 0.95266676
0.16700001 -0.017000001 0.96600002
0.171 -0.013 0.96900004
0.1785 -0.0070000002 0.96450007
0.18200001 -0.001 0.96400005
0.15900001 0.0060000001 0.96900004
0.16500001 0.0060000001 0.96750009
0.17580001 0.0044 0.96719998
0.18366666 0.004666667 0.96399999
0.14425001 0.017000001 0.96724999
0.15488891 0.014 0.9653334
0.1638 0.0132 0.96280003
0.17400001 0.011999999 0.96200007
0.18375 0.012000001 0.96125001
0.135875 0.026125001 0.96600002
0.1442 0.024600001 0.96160001
0.15200001 0.022000002 0.9605
0.12666667 0.035666667 0.96733338
0.13400002 0.034600001 0.96240008
0.11575 0.048 0.96650004
0.12342858 0.043714292 0.96385723
0.13100001 0.041000001 0.96100003
0.108 0.056000002 0.96800005
0.11499999 0.053799998 0.96400005
0.104875 0.064500004 0.96587503
0.1125 0.063000008 0.96100003
0.095200002 0.076399997 0.96599996
0.10266668 0.074000001 0.9618333
0.088 0.084250011 0.96675003
0.093666673 0.084333338 0.96233338
0.078000002 0.099000007 0.96800005
0.084888883 0.094777793 0.96411109
0.092000008 0.091000006 0.96000004
0.074400008 0.10520001 0.96640003
0.082333334 0.10333333 0.96166664
0.064666666 0.11700001 0.96766669
0.072875001 0.11350001 0.96275008
0.058000002 0.126 0.96800005
0.06471429 0.125 0.96342862
0.055428572 0.13428572 0.96614295
0.062000003 0.13500001 0.96100008
0.047000002 0.14566667 0.96766669
0.053000003 0.14383332 0.96300012
0.039000001 0.15700001 0.96800005
0.044600002 0.154 0.96520007
0.050000001 0.15200001 0.96000004
0.036333334 0.16616668 0.96600008
0.044 0.16166668 0.96133333
0.028000001 0.177 0.96900004
0.034200002 0.17399999 0.96319997
0.024833335 0.186 0.96583343
0.031000001 0.18200001 0.96150005
0.016000001 0.19700001 0.96900004
0.023 0.19400002 0.96360004
0.0080000004 0.20900001 0.96900004
0.014400001 0.20540002 0.9654001
0.021333335 0.20133334 0.96133333
-0.29300001 0.21166666 0.96300006
-0.28633335 0.21700001 0.96333337
0.012 0.21200001 0.96300006
0.15700001 -0.021000002 0.97700006
0.16000001 -0.021000002 0.97000003
0.1665 -0.015000001 0.97500002
0.149 -0.001 0.97900003
0.155 -0.001 0.97700006
0.16514288 -0.0038571432 0.97614288
0.17471431 -0.0044285716 0.97285718
0.13700001 0.0060000001 0.97800004
0.14483334 0.0040000002 0.97616673
0.15400001 0.0040000002 0.97300005
0.16366668 0.0020000001 0.97100002
0.171 0.0020000001 0.97000003
0.12900001 0.018000001 0.97700006
0.13466668 0.014 0.97500008
0.1432 0.011600001 0.97160006
0.1258 0.0244 0.97560006
0.132 0.022000002 0.97100008
0.11466668 0.035 0.97700006
0.12316667 0.032166667 0.97233337
0.10666668 0.046333332 0.97583342
0.11433334 0.042333335 0.97200012
0.098000005 0.057000004 0.97700006
0.1044 0.054600008 0.97320002
0.086000003 0.069000006 0.97900003
0.093999997 0.065125003 0.9747501
0.101 0.061000004 0.97100008
0.085750006 0.075250007 0.97475004
0.091499999 0.072000004 0.97250009
0.076400004 0.084800005 0.97660005
0.083399996 0.0832 0.97220004
0.067000002 0.096000001 0.97800004
0.074142858 0.094571434 0.97357148
0.059000004 0.108 0.97800004
0.064499997 0.1035 0.97550005
0.07 0.1015 0.97250009
0.057000007 0.11533334 0.97583342
0.06333334 0.11233333 0.97133332
0.047000002 0.127 0.97800004
0.0535 0.12383334 0.97450012
0.039000001 0.13900001 0.97900003
0.045400001 0.1356 0.97460002
0.051000003 0.13250001 0.97150004
0.038000003 0.14566667 0.97633338
0.043000001 0.14450002 0.97200006
0.028000001 0.15900001 0.97900003
0.034875002 0.15400001 0.97437501
0.026666665 0.16566668 0.977
0.032666668 0.16333334 0.97133332
0.024 0.17457144 0.97485721
0.014666666 0.18533336 0.97700006
0.021333335 0.18333335 0.97266674
-0.24300002 0.19800001 0.97300005
-0.19800001 0.19700001 0.97300005
0.0080000004 0.19700001 0.97700006
0.013600001 0.1934 0.97320002
-0.287 0.20900001 0.97700006
0.0048000002 0.20500001 0.97500002
0.012 0.20200001 0.97000003
-0.29000002 0.21200001 0.97200006
-0.28425002 0.21450001 0.97450006
-0.27650002 0.21700001 0.97700006
0.0013333334 0.21166669 0.97366673
0.15200001 -0.023000002 0.98700005
0.15666668 -0.014333334 0.98666668
0.16266668 -0.014333334 0.98100001
0.13666667 -0.0023333335 0.98600006
0.14400001 -0.0050000004 0.98466665
0.15366668 -0.0070000007 0.98333341
0.16350001 -0.0090000005 0.98100007
0.126 0.0060000001 0.98800004
0.13280001 0.0035999999 0.98380005
0.11850001 0.016000001 0.98750007
0.12457144 0.014 0.98342866
0.13000001 0.010000001 0.98200005
0.11480001 0.0244 0.98440009
0.12200001 0.022000002 0.98000002
0.099000007 0.038000003 0.98900002
0.10480001 0.0348 0.98580009
0.11133334 0.031333335 0.98266673
0.097500004 0.045750003 0.98500001
0.10333333 0.043000001 0.98133343
0.087000005 0.055500001 0.98700005
0.09314286 0.053285718 0.98328578
0.07766667 0.067666672 0.98699999
0.084000006 0.064199999 0.98360002
0.090000004 0.061000004 0.98100007
0.067000002 0.077000007 0.98900002
0.074833341 0.07500001 0.98400003
0.082000002 0.073000006 0.98000002
0.059000004 0.089000002 0.98800004
0.065399997 0.085800007 0.98500001
0.072000004 0.083750002 0.98175001
0.057000004 0.094999999 0.98650002
0.064333327 0.093666673 0.98133343
0.048 0.109 0.98800004
0.054625005 0.104 0.98400003
0.046333332 0.11533334 0.98633337
0.051000003 0.11400001 0.98200005
0.036000002 0.12900001 0.98900002
0.043125004 0.12375001 0.98450005
0.034666669 0.13533334 0.98666668
0.041000005 0.13333334 0.98133343
0.026666665 0.147 0.98700005
0.033600003 0.14299999 0.98240006
0.024799999 0.15440002 0.98439997
0.016000001 0.16700001 0.98750007
0.021600001 0.16320001 0.98340005
0.0080000004 0.177 0.98900002
0.014400001 0.17520002 0.98380005
0.020000001 0.17200001 0.98100007
0.0064000003 0.18540001 0.98580009
0.012 0.18200001 0.98200005
-0.21700001 0.19500001 0.98400003
0.0032000002 0.1938 0.98400003
-0.0056000003 0.20560002 0.98660004
0.0013333334 0.20133334 0.98166674
-0.27525002 0.215 0.98400009
-0.26400003 0.21800001 0.98600006
0.13600001 -0.037 0.99900007
0.14400001 -0.033 0.99500006
0.14766668 -0.025 0.99466676
0.15100001 -0.021000002 0.99200004
0.13600001 -0.013 0.99900007
0.1444 -0.014599999 0.99520004
0.15233333 -0.015666667 0.99133331
0.12633334 -0.0023333335 0.99600005
0.13383335 -0.0063333339 0.99250007
0.11750001 0.0060000001 0.99550003
0.12325 0.0032500001 0.99325001
0.10633334 0.016666668 0.99800009
0.11400001 0.013428572 0.99328578
0.10400001 0.0244 0.99420005
0.11100001 0.022000002 0.99000007
0.088000007 0.038000003 0.99800003
0.095285721 0.034000002 0.995
0.10300001 0.030000001 0.99200004
0.085750014 0.044000003 0.99650002
0.092333339 0.043333337 0.99066669
0.077 0.056666669 0.99600005
0.082666673 0.052666668 0.99316674
0.068000004 0.066 0.99700004
0.074600004 0.063600004 0.99300003
0.056000002 0.078000002 0.99900007
0.063857146 0.074000001 0.99542862
0.071000002 0.07 0.99100006
0.054400004 0.085000001 0.99540007
0.061000001 0.082666665 0.99133331
0.046999998 0.094999999 0.99725008
0.052000001 0.093333334 0.99300003
0.044666667 0.10466667 0.99366671
0.035000004 0.115 0.99725008
0.041000005 0.11325001 0.99225008
0.028000001 0.126 0.99700004
0.033600003 0.1244 0.99339998
0.025142858 0.13428572 0.99600011
0.032000002 0.133 0.99000007
0.016000001 0.14600001 0.99800003
0.022666669 0.14399999 0.99266672
0.014400001 0.15459999 0.99519998
0.020000001 0.15300001 0.99100006
0.0066666664 0.16500001 0.99733335
0.013 0.16425002 0.99175
-0.0040000002 0.17900001 0.99900007
0.0040000002 0.17399999 0.99471438
-0.0053333337 0.18533333 0.99700004
0.001 0.18450001 0.99150002
-0.23100001 0.19700001 0.99000007
-0.22400001 0.19800001 0.99700004
-0.012 0.19900002 0.99800003
-0.0060000005 0.19433336 0.99383336
-0.014 0.20475002 0.99625003
-0.0080000004 0.20200001 0.99200004
-0.27000001 0.215 0.99100006
-0.26450002 0.21375 0.99600005
-0.25633332 0.21800001 0.99300003
-0.014666666 0.21200001 0.99300003
0.14 -0.017000001 1
0.12 -0.001 1
0.11400001 0.0044999998 1
0.096000001 0.026000001 1
0.1 0.022000002 1
0.092000008 0.030000001 1
0.080000006 0.046000004 1
0.072000004 0.058000002 1
0.068000004 0.062000003 1
0.040000003 0.10200001 1
0.032000002 0.11400001 1
0.028000001 0.12200001 1
0.020000001 0.134 1
0.016000001 0.142 1
0.0080000004 0.15900001 1
0.012 0.15000001 1
-0.012 0.19500001 1
-0.25500003 0.21600001 1
