# .PCD v0.7 - Point Cloud Data file format
VERSION 0.7
FIELDS x y z
SIZE 4 4 4
TYPE F F F
COUNT 1 1 1
WIDTH 880
HEIGHT 1
VIEWPOINT 0 0 0 1 0 0 0
POINTS 880
DATA ascii
0.065928571 -0.13085714 0.21764286
0.074650005 -0.13124999 0.21670005
0.083625011 -0.13106251 0.21737503
0.0482 -0.1214 0.21900001
0.05498334 -0.12354998 0.21751666
0.064642854 -0.12471426 0.21638572
0.074376822 -0.12543479 0.21675369
0.083161294 -0.12729032 0.21758063
0.052000001 -0.12 0.21900003
0.04744444 -0.13144445 0.22777779
0.054655168 -0.13231035 0.22341381
0.063529417 -0.13394117 0.22105883
0.073428571 -0.13500001 0.22000001
0.093909092 -0.13036364 0.22209091
0.10175 -0.13000001 0.22725001
0.038250003 -0.12175001 0.22825001
0.044466667 -0.12442224 0.22395557
0.052111112 -0.12777779 0.22100002
0.075933337 -0.12180001 0.22033334
0.085000001 -0.1236 0.22232726
0.093765967 -0.12691487 0.2256809
0.10116667 -0.12816668 0.22850001
0.03748 -0.11675998 0.22764003
0.044090912 -0.11818182 0.22300003
0.052444447 -0.11777779 0.22200002
0.065367356 -0.11253058 0.22628573
0.074775293 -0.11482026 0.22504498
0.083593212 -0.11681356 0.2262034
0.090666674 -0.11933333 0.22900002
0.053000003 -0.109 0.22900002
0.039000001 -0.13000001 0.23400001
0.043000001 -0.13040002 0.2306
0.105 -0.13000001 0.23
0.035187498 -0.124375 0.23440625
0.041000005 -0.12800001 0.23066668
0.096096776 -0.12377419 0.23135483
0.1044 -0.12545 0.23456667
0.11181819 -0.12672728 0.23754548
0.028409092 -0.11340911 0.23768182
0.032791041 -0.11434327 0.23353733
0.051000003 -0.11000001 0.23
0.067000009 -0.11 0.22999999
0.075777784 -0.11044446 0.2307778
0.085120007 -0.11201997 0.23295993
0.093843773 -0.1156875 0.23482814
0.10125 -0.11858334 0.23766668
0.045090917 -0.10563638 0.23586367
0.054555558 -0.10433334 0.23770368
0.065368421 -0.10626318 0.23545618
0.074078128 -0.10704691 0.23535942
0.082840003 -0.10820001 0.237
0.028500002 -0.1225 0.24250001
0.030500002 -0.1235 0.24000001
0.10788889 -0.12211112 0.24122222
0.11452381 -0.12392859 0.24419048
0.12100001 -0.12433334 0.24800003
0.02603448 -0.11348274 0.24165522
0.030500002 -0.11000001 0.24000001
0.096206896 -0.11151725 0.2426897
0.10420001 -0.11571112 0.24384443
0.111 -0.11842857 0.24742858
0.026153846 -0.10771797 0.24548726
0.034475408 -0.10440981 0.24508199
0.044000003 -0.10203849 0.24326926
0.054872345 -0.10189361 0.24317031
0.064725496 -0.10229415 0.24327445
0.074293107 -0.10262074 0.24432756
0.084320769 -0.10524528 0.24422644
0.092136361 -0.10795455 0.24540912
0.039000001 -0.1 0.24900001
0.044785716 -0.10000002 0.24792854
0.054176476 -0.099823534 0.24817652
0.063846156 -0.10000002 0.24838464
0.11728572 -0.12157144 0.25085714
0.12356 -0.12204 0.25460002
0.098500006 -0.11000001 0.2525
0.1045 -0.11300001 0.25300002
0.11503126 -0.11706249 0.25440624
0.12157144 -0.11942858 0.25771427
0.026166666 -0.1042143 0.25407147
0.033212122 -0.10312123 0.2541818
0.078000009 -0.10120001 0.25080001
0.084703714 -0.10233334 0.25318518
0.0942 -0.10665001 0.25369999
0.038600005 -0.1 0.2534
0.044794876 -0.099025637 0.2538718
0.054466665 -0.098422229 0.25453338
0.064333335 -0.098466672 0.25399989
0.074153848 -0.099256396 0.25476921
0.081 -0.1 0.25725001
0.12800001 -0.12100001 0.26050001
0.13125001 -0.12125 0.26225001
0.10436364 -0.1128182 0.26354548
0.1158421 -0.11689474 0.26447371
0.12456098 -0.11653659 0.26424393
0.13233332 -0.11916668 0.26708335
0.027166666 -0.10133334 0.26116669
0.034233332 -0.10173334 0.26260003
0.040000003 -0.101 0.266
0.086222224 -0.10222223 0.26422226
0.094272733 -0.10690909 0.26445454
0.028666668 -0.1 0.26366666
0.033956524 -0.099608704 0.26656523
0.044521742 -0.099217393 0.26417395
0.054700002 -0.097233377 0.2643334
0.064352952 -0.096735299 0.26402947
0.074269228 -0.09784618 0.26392305
0.081 -0.099800006 0.26380002
0.11733335 -0.12133334 0.27533337
0.12 -0.12200001 0.27900001
0.099000007 -0.11000001 0.27900001
0.10423078 -0.11230771 0.27476925
0.11500001 -0.11925 0.2755
0.12565385 -0.11384617 0.27415386
0.13432433 -0.1156757 0.27464873
0.14137501 -0.11800001 0.27687502
0.085124999 -0.10187501 0.274625
0.094000004 -0.10712501 0.27425003
0.037222225 -0.098222218 0.27122223
0.044146344 -0.098536573 0.27443901
0.054590914 -0.097727299 0.27418181
0.064608701 -0.095999986 0.27434787
0.073333338 -0.097999997 0.27441669
0.080500007 -0.1 0.27400002
0.1172 -0.12180001 0.28560001
0.12225001 -0.12225001 0.285375
0.097500004 -0.11000001 0.28500003
0.10560871 -0.11156522 0.28400001
0.1118889 -0.11394444 0.28566667
0.12655556 -0.1168889 0.28388894
0.13479166 -0.11162502 0.28362504
0.14383332 -0.11450001 0.28516671
0.15100001 -0.116 0.28800002
0.078000009 -0.101 0.28500003
0.085600004 -0.1036 0.28480002
0.093333349 -0.10626667 0.2854667
0.13775001 -0.109 0.287
0.14 -0.108 0.289
0.048 -0.096875004 0.28137499
0.054083332 -0.097194463 0.28472224
0.064904772 -0.096190467 0.28423813
0.072733335 -0.097200006 0.285
0.123 -0.091666676 0.289
0.11822224 -0.085166663 0.2886667
0.12293021 -0.084627911 0.2876744
0.119 -0.078000002 0.289
0.12166667 -0.078666665 0.289
0.11833334 -0.12166667 0.29366669
0.12395239 -0.12257143 0.29495242
0.13100001 -0.12100001 0.29900002
0.10471429 -0.11228573 0.29500002
0.11469566 -0.11247825 0.29269561
0.12257143 -0.11507143 0.29607147
0.1342143 -0.11457144 0.29514289
0.14675 -0.11175001 0.29266664
0.15319049 -0.11314286 0.29519048
0.078500003 -0.1015 0.29449999
0.083857141 -0.10442857 0.29485717
0.095700003 -0.10600001 0.29404998
0.10190909 -0.1069091 0.2968182
0.1168 -0.10880001 0.29680002
0.12375 -0.10458333 0.2984167
0.13600002 -0.10633334 0.29400003
0.14366667 -0.10806667 0.29526666
0.057666674 -0.095444448 0.29155555
0.063774191 -0.095709667 0.294871
0.074931033 -0.095896564 0.29420689
0.080666676 -0.095666677 0.29800001
0.1169524 -0.093714289 0.29461902
0.12406667 -0.096233338 0.29390001
0.13100001 -0.094857149 0.29685715
0.1158125 -0.085375018 0.29275
0.12816668 -0.085833333 0.29066667
0.13150001 -0.085000008 0.29449999
0.11785716 -0.078428574 0.29357147
0.12318182 -0.078181826 0.29399997
0.1267 -0.12230001 0.30290002
0.13114285 -0.12128572 0.30600002
0.1077778 -0.11244444 0.30222225
0.11313334 -0.11146668 0.30526668
0.12607692 -0.11476924 0.30292308
0.13406667 -0.11573334 0.30600002
0.14142857 -0.11214286 0.30471429
0.15623076 -0.11092309 0.30246153
0.16236365 -0.11136365 0.30536366
0.084692307 -0.10361537 0.30507696
0.095636368 -0.10690909 0.30463636
0.10533334 -0.10496296 0.30403709
0.11548148 -0.10522223 0.3062593
0.12312905 -0.10538711 0.30177423
0.13333334 -0.10500001 0.30391669
0.14659999 -0.10770001 0.30299997
0.15300001 -0.10664707 0.30582353
0.16100001 -0.109 0.30900002
0.067363642 -0.094000004 0.30181822
0.073680013 -0.094480015 0.30540001
0.08422222 -0.09518519 0.30451855
0.090000004 -0.094500005 0.30900002
0.1156087 -0.09652175 0.30452174
0.13611113 -0.09644445 0.30388892
0.14 -0.096000001 0.30900002
0.116625 -0.086000003 0.30287501
0.12050001 -0.080500007 0.30550003
0.1362 -0.086800002 0.30260003
0.12719999 -0.077600002 0.30340004
0.13000001 -0.078000002 0.30200002
0.133 -0.12133334 0.31133333
0.09533333 -0.11000001 0.31533334
0.116 -0.11033335 0.31133333
0.13600001 -0.11710526 0.31342104
0.14366668 -0.11460001 0.31566668
0.1505 -0.11050001 0.31800002
0.16666669 -0.11016668 0.31100002
0.1715 -0.11000001 0.31450003
0.088200003 -0.10520001 0.31040001
0.092954546 -0.10577273 0.31545451
0.10515384 -0.10469232 0.31361538
0.11420835 -0.10395834 0.31220835
0.12 -0.1075 0.3125
0.13800001 -0.108 0.31
0.14299999 -0.10533334 0.3145
0.15546669 -0.1058 0.3136
0.16404761 -0.10690477 0.31538096
0.17200001 -0.109 0.31725001
0.076466672 -0.092399999 0.31253332
0.084000006 -0.093545467 0.31504548
0.093136363 -0.094045453 0.31518182
0.11486667 -0.096466668 0.3136
0.14360002 -0.095200002 0.315
0.11850001 -0.087500006 0.31
0.12066668 -0.086666666 0.31500003
0.1434 -0.087800004 0.31540003
0.1 -0.11000001 0.32200003
0.14423077 -0.11638463 0.32238463
0.15177777 -0.11244445 0.32655558
0.097384617 -0.10553845 0.32215387
0.10359091 -0.10663638 0.32545459
0.11300001 -0.10266668 0.32516667
0.14775001 -0.1055 0.32425001
0.15525001 -0.10625001 0.32375002
0.16566667 -0.10393335 0.32346669
0.17379166 -0.10587501 0.32470837
0.18133335 -0.10666668 0.32766667
0.085692316 -0.092 0.32330769
0.095173933 -0.093304366 0.32373914
0.10221429 -0.09435714 0.32621428
0.1168 -0.097800002 0.32339999
0.12075 -0.09375 0.32550001
0.14825 -0.09375 0.32325
0.15033334 -0.097000003 0.32633334
0.10275 -0.090000004 0.32775003
0.12560001 -0.08640001 0.3242
0.149 -0.087666668 0.32466671
0.15200001 -0.085000008 0.32900003
0.14324999 -0.074687496 0.32218754
0.15533334 -0.11322224 0.33466664
0.16150001 -0.111 0.33700001
0.10618751 -0.105 0.3326875
0.11257143 -0.10478572 0.33578572
0.15540001 -0.1046 0.33340001
0.16550002 -0.10475001 0.33075002
0.17491668 -0.1025 0.3334167
0.183375 -0.10437501 0.33500004
0.087500006 -0.091000006 0.33100003
0.094857141 -0.091642864 0.33442855
0.10525 -0.094666667 0.33333337
0.11071429 -0.095000006 0.33685717
0.12350001 -0.09616667 0.33583331
0.15625001 -0.093875006 0.33487502
0.17549999 -0.099666663 0.33600006
0.10622223 -0.089111127 0.33522227
0.11233333 -0.087888889 0.33766666
0.13100001 -0.088000007 0.33800003
0.15583335 -0.087666668 0.33400002
0.16000001 -0.084000006 0.33900002
0.14600001 -0.076000005 0.33800003
0.15900001 -0.11150001 0.34250003
0.16325001 -0.112 0.34350002
0.11529412 -0.10388235 0.34311762
0.12133334 -0.10283333 0.34633335
0.15700001 -0.10700001 0.34
0.16550002 -0.10700001 0.34500003
0.17300001 -0.10475001 0.34300002
0.18637502 -0.102375 0.34174997
0.19350004 -0.10333333 0.34575
0.094444446 -0.091777787 0.34277779
0.11546154 -0.09638463 0.34361538
0.1238 -0.096000001 0.34580004
0.13000001 -0.094000004 0.34650004
0.16328572 -0.095000006 0.34485716
0.17775002 -0.099250004 0.34225002
0.18383335 -0.098583333 0.34516668
0.097625002 -0.08743751 0.34700003
0.10414816 -0.085166655 0.34488893
0.1142647 -0.084294118 0.34414703
0.12140001 -0.085600004 0.34780002
0.13150001 -0.088500008 0.34100002
0.163625 -0.086750001 0.344125
0.16666669 -0.11466667 0.354
0.1745 -0.11250001 0.35574999
0.12366667 -0.10155556 0.35266668
0.16633333 -0.10433334 0.35333332
0.17750001 -0.10450001 0.35000002
0.18150002 -0.10450001 0.35700002
0.19600001 -0.10175001 0.3515
0.20214286 -0.10257143 0.35585716
0.093818188 -0.092636369 0.3547273
0.12534997 -0.097000018 0.35519999
0.13314286 -0.095142856 0.35485718
0.16850001 -0.094500005 0.35150003
0.17240001 -0.094000004 0.35660002
0.18525 -0.097999997 0.35287505
0.19336365 -0.098363638 0.35527274
0.2 -0.1 0.35900003
0.087399997 -0.082133338 0.35706669
0.093780495 -0.084829286 0.35275611
0.10216668 -0.080666669 0.35083333
0.116375 -0.080624998 0.351625
0.12442309 -0.083576933 0.35426924
0.13200001 -0.086500004 0.35625002
0.17060001 -0.086800002 0.35400003
0.086666673 -0.077066667 0.35780001
0.094457157 -0.076571412 0.35594282
0.1048158 -0.076368429 0.35515794
0.11356 -0.076560006 0.35580003
0.12100001 -0.078500003 0.3585
0.16900001 -0.11400001 0.36150002
0.17500001 -0.11733335 0.36566672
0.18200001 -0.11300001 0.36750001
0.17333335 -0.10533334 0.36366668
0.18575001 -0.105 0.3655
0.20700002 -0.10175 0.36150002
0.21233334 -0.10133334 0.36633334
0.087499999 -0.091500007 0.36600006
0.091166668 -0.093499996 0.36166668
0.13365 -0.095000014 0.36405
0.14300001 -0.091000006 0.36450005
0.17666668 -0.095666669 0.3626667
0.18450001 -0.098500006 0.36500001
0.19571428 -0.097571433 0.36414286
0.20418182 -0.098636366 0.36499998
0.21100001 -0.099000007 0.36900002
0.076727279 -0.081454553 0.36809093
0.083757572 -0.085484855 0.36469698
0.090000004 -0.090000004 0.36200002
0.12900001 -0.081 0.36000001
0.13347059 -0.083294109 0.36447063
0.156 -0.082000002 0.36600003
0.17650001 -0.086499996 0.36283335
0.075459465 -0.074432425 0.36681086
0.083657146 -0.073828563 0.36254287
0.094294131 -0.071941189 0.36176476
0.10393333 -0.071733341 0.36200002
0.11518751 -0.072437495 0.361875
0.12404168 -0.075583346 0.36399996
0.13050002 -0.078500003 0.36850002
0.171 -0.075000003 0.36700001
0.075750008 -0.069000006 0.36862502
0.084214285 -0.068714291 0.36778572
0.094214298 -0.069142856 0.36657146
0.1045 -0.069499999 0.36700001
0.11391667 -0.069500007 0.36608335
0.12 -0.07 0.36500001
0.17766666 -0.1155 0.37450001
0.18412501 -0.11450001 0.37562498
0.184 -0.10525 0.37525004
0.19166668 -0.10433334 0.37633333
0.13833334 -0.093000002 0.37133333
0.14337501 -0.093125001 0.37512502
0.15000001 -0.092000008 0.37600002
0.18350001 -0.094166666 0.373
0.19600001 -0.099000007 0.37400001
0.20444444 -0.096333347 0.37222221
0.21411765 -0.097470604 0.37517646
0.222 -0.099333338 0.377
0.06683334 -0.080333345 0.37400004
0.074062504 -0.083750002 0.37068751
0.081 -0.089000002 0.37
0.13814285 -0.082857139 0.37157145
0.1418 -0.084200002 0.3761
0.18360002 -0.085000001 0.37439999
0.058000002 -0.076000005 0.37900001
0.064153843 -0.074666686 0.37561542
0.070700005 -0.076200008 0.37070003
0.12850001 -0.074500002 0.37150002
0.133 -0.077800006 0.37439999
0.17500001 -0.075000003 0.37349999
0.064809524 -0.066142857 0.37649998
0.074026324 -0.065052629 0.37407893
0.084406249 -0.064593755 0.37396872
0.094307698 -0.065269232 0.37419236
0.10413043 -0.065956518 0.3736957
0.11150001 -0.067750007 0.3705
0.18556251 -0.11425002 0.38325003
0.191 -0.111 0.38616669
0.18733335 -0.10566667 0.38333336
0.19400002 -0.10577778 0.38622224
0.14675 -0.092000008 0.38275
0.15240002 -0.092799999 0.38500005
0.19250003 -0.095875002 0.38624999
0.20525002 -0.098750003 0.38275003
0.21550001 -0.094250008 0.38400003
0.22342858 -0.095571421 0.38471431
0.23100001 -0.097000003 0.3876667
0.14566667 -0.082749993 0.38358334
0.1505 -0.083250001 0.38725001
0.19140002 -0.086200006 0.38660002
0.055923082 -0.072615393 0.38123083
0.13625002 -0.077500001 0.38375002
0.14 -0.079000004 0.38800001
0.17600001 -0.076000005 0.38300002
0.048099998 -0.065699995 0.38819999
0.054204084 -0.065489776 0.38338771
0.062375002 -0.061624996 0.38037503
0.074833341 -0.061000001 0.38000003
0.084500007 -0.061000001 0.38016668
0.095000006 -0.062100004 0.38160005
0.1012 -0.062400002 0.38280001
0.047857143 -0.057857148 0.38871428
0.054457139 -0.056514286 0.38637146
0.064757578 -0.056787871 0.38463643
0.074000008 -0.057360001 0.38484004
0.084388889 -0.058333337 0.38538891
0.093454555 -0.059363637 0.38636363
0.19700001 -0.10557144 0.39214283
0.20325001 -0.103125 0.39587501
0.21100001 -0.10300001 0.39900002
0.15657143 -0.09257143 0.39400002
0.163 -0.091000006 0.39500001
0.1971111 -0.094333343 0.39055559
0.20333333 -0.094666667 0.39555559
0.21425 -0.097000003 0.39225
0.22490911 -0.092363641 0.39363641
0.23416667 -0.093916662 0.39491668
0.14575002 -0.080000006 0.39225003
0.15490001 -0.083900005 0.39430001
0.16700001 -0.089500003 0.39800003
0.1969 -0.085900001 0.39230004
0.20285715 -0.087857142 0.39485717
0.14457142 -0.078000002 0.39657146
0.15220001 -0.079000004 0.39480001
0.1875 -0.077000007 0.39400002
0.037666667 -0.061666667 0.39766669
0.043434788 -0.064000003 0.39295655
0.036666669 -0.055555563 0.39766672
0.043820519 -0.054769237 0.39241028
0.054250002 -0.051499996 0.39058337
0.063833334 -0.051583335 0.391
0.074888892 -0.053055547 0.3926667
0.083850004 -0.054300003 0.39425001
0.092333339 -0.057333335 0.39100003
0.0364375 -0.047062501 0.39800006
0.044275004 -0.04590001 0.39610004
0.054517243 -0.046724144 0.39565521
0.064105257 -0.048157897 0.39615789
0.074000008 -0.049666669 0.39766666
0.041500002 0.18200001 0.39850003
0.208 -0.10200001 0.40200001
0.21460001 -0.10220001 0.40560001
0.16371429 -0.092428572 0.40457144
0.171 -0.091000006 0.40900001
0.208 -0.095000006 0.40033332
0.21366669 -0.096333332 0.40550005
0.22400001 -0.094500005 0.40350002
0.23700002 -0.091600008 0.40220004
0.24233334 -0.091666676 0.40433335
0.15850002 -0.086500004 0.40000001
0.162 -0.085600004 0.40540004
0.20600002 -0.085749999 0.40150002
0.213 -0.089000002 0.40750003
0.23333335 -0.089666665 0.40533331
0.24100001 -0.090000004 0.40900001
0.14766668 -0.077 0.40133333
0.15491669 -0.077750012 0.40383339
0.16166668 -0.078000009 0.40466666
0.19500001 -0.079000004 0.40400001
0.028166667 -0.051833332 0.4041667
0.032583334 -0.054499999 0.40091667
0.025441179 -0.044205889 0.40579411
0.033307694 -0.044307694 0.40096155
0.044166666 -0.041000005 0.40033337
0.054800007 -0.041533336 0.40193337
0.064629644 -0.042777784 0.40459257
0.073153853 -0.046538457 0.40269235
0.025393941 -0.034969699 0.40663636
0.034750003 -0.035083335 0.4039166
0.044393945 -0.035818178 0.40509093
0.053411767 -0.037352942 0.406353
0.061000004 -0.038000003 0.40900001
0.026357142 -0.028428573 0.40835714
0.034499995 -0.029200003 0.40810004
0.041000001 -0.030000001 0.40900001
-0.061000004 0.18400002 0.40900001
0.038000003 0.186 0.40600002
0.043666672 0.18433334 0.40333334
0.21800001 -0.10200001 0.41300002
0.22250001 -0.10200001 0.41550002
0.16750002 -0.091500007 0.41300005
0.17050001 -0.091500007 0.41600001
0.21700001 -0.097999997 0.41200003
0.22633334 -0.097666673 0.4136667
0.23233335 -0.092666678 0.41400003
0.16660002 -0.085600004 0.41280001
0.17366667 -0.088333338 0.41533336
0.20700002 -0.0845 0.41300002
0.21500002 -0.087666668 0.4136667
0.2366 -0.089000002 0.41440001
0.24300002 -0.087333344 0.41475001
0.1568 -0.07540001 0.41240007
0.16408335 -0.076583333 0.41366664
0.17200001 -0.077500001 0.41850001
0.19666667 -0.079000004 0.4156667
0.16500001 -0.064000003 0.41700003
0.018000001 -0.040000003 0.41100001
0.020000001 -0.041333336 0.41
0.016058827 -0.034470588 0.41311771
0.020000001 -0.035000004 0.41020003
0.047666669 -0.032000002 0.41033337
0.055625003 -0.033374999 0.41287503
0.061857142 -0.036428571 0.41242859
0.0080000004 -0.023250002 0.41824999
0.014268292 -0.025170725 0.41480488
0.023161292 -0.023806455 0.41138718
0.034406252 -0.023906246 0.4124375
0.044060607 -0.02560606 0.41472733
0.051818188 -0.028454548 0.41645458
0.0080000004 -0.014833334 0.41900006
0.014166668 -0.01472222 0.41633341
0.023911765 -0.014911763 0.41626471
0.033500001 -0.01711111 0.41738886
0.040000003 -0.019000001 0.41900003
0.014076923 -0.0078461552 0.41861549
0.020000001 -0.0090000005 0.41900003
-0.064222224 0.18444444 0.41411114
-0.055888891 0.18566668 0.41477779
-0.045272727 0.18799998 0.41681817
-0.0352 0.18800001 0.41599998
-0.0255 0.18800001 0.41633335
-0.01675 0.18900001 0.41775003
0.038000003 0.18850002 0.41450003
0.043250002 0.18650001 0.41225004
-0.011 0.19000001 0.41650003
-0.0080000004 0.19100001 0.41850001
0.0020000001 0.19100003 0.41900003
0.028000001 0.19100001 0.41900003
0.033 0.19075 0.41850004
0.22566669 -0.10166667 0.42266667
0.23 -0.101 0.42800003
0.1762 -0.091400005 0.42360002
0.22583336 -0.09616667 0.42350003
0.234 -0.095000006 0.4249
0.17449999 -0.085875005 0.42450005
0.18300001 -0.089000002 0.42500001
0.19900002 -0.082000002 0.42900002
0.20650002 -0.082500003 0.42500001
0.21600001 -0.087000005 0.42400002
0.222 -0.089500003 0.42700002
0.24209093 -0.085181825 0.42481822
0.16662501 -0.073625006 0.42350003
0.17437501 -0.075374998 0.42562503
0.21300001 -0.061000004 0.42100003
0.0065000001 -0.022 0.42000002
0.047400001 -0.021400001 0.42140001
0.051800001 -0.024600003 0.42080003
0.0044285706 -0.014095238 0.4219048
0.028000001 -0.011000001 0.42000002
0.035333335 -0.012555558 0.42244446
0.043863639 -0.016000001 0.4248637
-0.0023750002 -0.0033750003 0.42650005
0.0042499993 -0.0048333337 0.42280561
0.014434782 -0.0031304343 0.42113051
0.02462857 -0.0047142855 0.42314294
0.033529416 -0.0068823523 0.42658827
-0.0032142855 0.0041428572 0.42771432
0.0046285712 0.0050571435 0.42414284
0.014354837 0.0045483867 0.4244839
0.022733334 0.0032666668 0.42766663
-0.0031249998 0.013625002 0.42812499
0.0043548387 0.014451616 0.42632261
0.0132 0.012600002 0.42775002
-0.0024545456 0.023818184 0.42872724
0.0031599998 0.023320004 0.42828
-0.003 0.034866672 0.42866662
0.0020000001 0.034333337 0.42866662
-0.0040000002 0.044818193 0.4283182
0.001 0.043299999 0.42869997
-0.0042727273 0.052363634 0.42890903
0 0.051000003 0.42900002
-0.065624997 0.1855 0.42300004
-0.055238094 0.18380953 0.42461908
-0.044928573 0.18735716 0.42514285
-0.035133336 0.18766667 0.42433339
-0.025166668 0.18794444 0.42461115
-0.015714286 0.18900001 0.42514285
-0.073500007 0.192 0.42650002
-0.011500001 0.19000001 0.42325002
-0.0047692307 0.19076923 0.42415386
0.0051333336 0.191 0.42480004
0.014083333 0.19199999 0.42475006
0.024200002 0.19159999 0.42460003
0.03366667 0.19166666 0.42483333
0.049000002 0.19100001 0.42200002
0.054400004 0.19320002 0.42600003
0.060000002 0.19500001 0.42900002
0.18300001 -0.091000006 0.43200004
0.22800002 -0.091000006 0.43100002
0.23527782 -0.093555562 0.43444449
0.17900001 -0.083000004 0.43100002
0.18355556 -0.087888889 0.43477777
0.19100001 -0.088500008 0.43700004
0.21650001 -0.086500004 0.43650001
0.22533335 -0.089333333 0.43633339
0.23857142 -0.086428568 0.43785712
0.24136844 -0.084263161 0.43363166
0.17477781 -0.072777778 0.43422219
0.18220001 -0.075200006 0.43620005
0.23800001 -0.072000004 0.43700001
0.24187502 -0.077500001 0.43562502
0.17200001 -0.07 0.43400002
0.043000001 -0.011000001 0.43000001
0.035230767 -0.0027692309 0.43223077
0.040400002 -0.0068000006 0.43220001
-0.0065000001 0.0065000001 0.43050003
0.026615385 0.0054615387 0.4316923
0.032599997 0.004133333 0.43586665
-0.010000001 0.017500002 0.43350002
-0.0071428576 0.014142857 0.43092856
0.016733332 0.015866669 0.43133336
0.023708334 0.013499998 0.43512502
0.030000001 0.010000001 0.43800002
-0.010799999 0.025099998 0.43380004
-0.0064736847 0.024368426 0.43099999
0.0075454549 0.025818186 0.43063638
0.014694442 0.024416665 0.4339444
0.021800002 0.021600001 0.43839997
-0.011882353 0.035 0.43429413
-0.0070000002 0.033999998 0.43113333
0.0070000002 0.034500003 0.43100005
0.013862068 0.034689657 0.4355517
-0.01247619 0.044952385 0.43366668
-0.0077500008 0.043875001 0.43050003
0.0057200007 0.045200009 0.43156007
0.013105264 0.044368431 0.4364737
-0.013814813 0.05448148 0.43414816
-0.0054210527 0.056578957 0.42999995
0.0048000002 0.054566663 0.43293339
0.011857145 0.053928576 0.43764284
-0.014294115 0.064441182 0.43391174
-0.0049999999 0.064679995 0.43040004
0.0044999998 0.064444453 0.43430558
0.011000001 0.063250005 0.43850002
-0.014571426 0.074485719 0.43357146
-0.0050333333 0.074533328 0.43133339
0.0040000002 0.074259251 0.43592593
-0.021 0.084500007 0.43783334
-0.014874998 0.084281258 0.43287501
-0.0052 0.08444 0.43240002
0.0025454545 0.084136367 0.43672726
-0.022 0.094599999 0.43740001
-0.014666665 0.094444461 0.43269449
-0.0053103454 0.094482772 0.43375862
0.0016923079 0.094076917 0.43738464
-0.022882355 0.10476471 0.43658823
-0.014666664 0.10436668 0.43270001
-0.0052000005 0.10464 0.43552002
0.00057142862 0.10314286 0.4387143
-0.023250001 0.11468751 0.43631247
-0.014941175 0.11449999 0.4334999
-0.005478261 0.11408696 0.43686962
-0.023818187 0.12445454 0.43654549
-0.014870969 0.12474193 0.434742
-0.0073076934 0.12376924 0.43784615
-0.024047622 0.13461906 0.43642858
-0.015000001 0.13476667 0.43583339
-0.0084285717 0.13314286 0.4387143
-0.022789476 0.14368422 0.43715793
-0.014888889 0.14388889 0.43772218
-0.022500001 0.15000001 0.43900001
-0.022777777 0.16611113 0.43888891
-0.018000001 0.163 0.43900001
-0.055250004 0.17900001 0.43550003
-0.033499997 0.17683333 0.43766665
-0.025153844 0.1756154 0.43688467
-0.017000001 0.17900001 0.43850002
-0.062000003 0.18300001 0.43000001
-0.054562502 0.18137501 0.43300003
-0.044956524 0.18552175 0.43521741
-0.034807697 0.18365385 0.43442318
-0.024166668 0.18383333 0.43323329
-0.015200003 0.18568 0.43616
-0.0060000005 0.18900001 0.43800005
0.032499999 0.18900001 0.43800002
-0.080000006 0.19700001 0.43700001
-0.075666673 0.19366665 0.433
-0.011666668 0.19000001 0.43133333
-0.0052499999 0.19033335 0.43458331
0.0047222222 0.1901667 0.43533343
0.01507143 0.19135714 0.43478575
0.023999998 0.19083335 0.43383336
0.035277776 0.1912778 0.43455559
0.044 0.19355555 0.4347778
0.054500002 0.19500001 0.43466672
0.064875007 0.19637501 0.43487504
0.073750004 0.19800001 0.43550003
0.079000004 0.2 0.43800002
0.081 0.2 0.43900001
0.18560001 -0.086600006 0.44080001
0.19263639 -0.086000003 0.44581822
0.205 -0.083999999 0.4456667
0.21350001 -0.08375001 0.44450003
0.22500001 -0.088333338 0.44666672
0.23470969 -0.084967755 0.44432259
0.17900001 -0.071000002 0.44200003
0.18562502 -0.072750002 0.444875
0.19000001 -0.075500004 0.44750002
0.23614284 -0.075523816 0.44495246
0.17650001 -0.068500005 0.44200003
0.18125001 -0.068500005 0.44725001
0.23275001 -0.069250003 0.44450003
0.033 0.0080000004 0.44000003
0.027333332 0.016666668 0.44116667
0.031125002 0.01275 0.44175005
0.02495238 0.02495238 0.44257149
0.019000001 0.034400001 0.44060001
0.02347059 0.034235291 0.4442353
0.017714286 0.044714291 0.44057146
0.021526318 0.044263162 0.44431576
0.016133334 0.055000003 0.44193333
0.021090908 0.054181818 0.44645455
0.014954546 0.064818174 0.44322729
0.020285714 0.064000003 0.4477143
-0.021 0.074666671 0.442
0.0090000005 0.077000007 0.44033337
0.014120001 0.074239999 0.44503993
-0.023000002 0.084000014 0.44416669
0.0077272728 0.084818192 0.44127274
0.013222223 0.084055558 0.44661108
-0.024750002 0.093750015 0.44400004
0.0065555559 0.094500013 0.44244444
0.011750001 0.094250008 0.44775003
-0.0266 0.105 0.44280005
0.0059130429 0.10469566 0.44439128
0.011000001 0.10200001 0.44900003
-0.027888887 0.11477777 0.44300002
-0.0020000001 0.11700001 0.44033337
0.0036666666 0.11425 0.44466671
-0.031000001 0.12850001 0.44800001
-0.029000001 0.12450001 0.44166669
-0.0029166669 0.12558334 0.44108334
0.0024705883 0.12423531 0.4461177
-0.031000001 0.13433334 0.4431667
-0.029000003 0.13440001 0.44
-0.0040588239 0.13500002 0.44211769
0.0012727274 0.13418184 0.44727275
-0.032111108 0.14433333 0.44511113
-0.027999999 0.1455 0.44087505
-0.0115 0.14650001 0.44100004
-0.0055238097 0.14419049 0.44433334
0 0.142 0.44800001
-0.031999998 0.15450001 0.44780001
-0.024615387 0.15484616 0.44196159
-0.014590911 0.15463637 0.44336367
-0.0076666665 0.15249999 0.44750002
-0.032999996 0.16525 0.44693753
-0.025608698 0.164 0.44173908
-0.014285716 0.16490476 0.44476196
0.0090000005 0.16900001 0.44500002
-0.053714287 0.17842858 0.44371429
-0.043846156 0.17761537 0.44630769
-0.035857141 0.17314288 0.44342858
-0.023222223 0.17222224 0.44033337
-0.014444446 0.17481482 0.44403705
-0.0076666675 0.17750001 0.44800004
0.0071428576 0.17592858 0.44785714
0.011000001 0.17300001 0.44900003
-0.045529414 0.18176472 0.44223532
-0.012142858 0.18214287 0.44057146
-0.0054000006 0.1842667 0.44363341
0.0041379305 0.18582761 0.4453449
0.011285715 0.18785715 0.44628572
0.0352 0.1886 0.44470006
0.040000003 0.18900001 0.44600001
-0.083000004 0.19900002 0.44200003
-0.079000004 0.19800001 0.44300002
0.016428571 0.19085716 0.44428572
0.024400001 0.19119999 0.44469994
0.033000004 0.19066668 0.44400001
0.044700004 0.19400002 0.44490004
0.054700006 0.1963 0.44519997
0.064285718 0.19728573 0.44414288
0.072500005 0.19875002 0.44475001
0.077000007 0.2 0.44350004
0.08488889 0.20099999 0.44322225
0.091750011 0.20175001 0.4445
0.19611113 -0.084666669 0.45355558
0.20444447 -0.085222222 0.45577779
0.21536364 -0.081818171 0.45672733
0.22495 -0.082949996 0.45445004
0.23066668 -0.083999999 0.45083335
0.19571428 -0.073571436 0.45557144
0.2254231 -0.075000003 0.45580772
0.2316 -0.074600004 0.45080003
0.1866 -0.067100003 0.45360002
0.19407144 -0.066785716 0.45635718
0.2015 -0.063000001 0.45850003
0.21600002 -0.064500004 0.45900002
0.22413334 -0.067666672 0.45546669
0.23100001 -0.069000006 0.45100003
0.018000001 0.079000004 0.45000002
0.016333334 0.086000003 0.45100001
0.01475 0.094500005 0.45112503
0.012142858 0.10528572 0.45114285
0.0086666672 0.11500001 0.45083335
0.011000001 0.11500001 0.45320001
-0.031000001 0.126 0.45100003
0.0078333346 0.12483334 0.45208338
0.0063076932 0.13461539 0.45276925
-0.0020000001 0.149 0.45100003
0.0034666669 0.14446667 0.4526667
-0.035888888 0.15566668 0.45288891
-0.0042500002 0.15558334 0.45283332
0.0020000001 0.15214287 0.45628574
-0.0405 0.16475001 0.45650002
-0.037250001 0.164875 0.451875
-0.011000001 0.16100001 0.45000002
-0.0063 0.16440003 0.45495
-0.045105264 0.17473686 0.45389476
-0.039000001 0.17 0.45000002
-0.004958333 0.17387499 0.45375004
0.003411765 0.17452943 0.45370591
0.01125 0.17525001 0.45225003
-0.003 0.18000001 0.45000002
0.0045000003 0.1815 0.45025003
0.012642859 0.18485714 0.45385718
0.033 0.18850002 0.45100003
0.040000003 0.18800001 0.45000002
0.017400002 0.19100001 0.45380002
0.024555556 0.19177778 0.456
0.031000001 0.192 0.45600003
0.045000006 0.19385715 0.45471433
0.053333331 0.19683333 0.45483336
0.063500002 0.19866669 0.45450005
0.066 0.2 0.45900002
0.075125001 0.200875 0.45425004
0.085000001 0.20199999 0.45240003
0.092250004 0.20125002 0.45200002
0.20483334 -0.08191666 0.46166667
0.21216668 -0.080500007 0.46116665
0.19900002 -0.075000003 0.46000001
0.20446667 -0.075400002 0.46333334
0.21466668 -0.074999996 0.46216667
0.20557144 -0.066928573 0.46185714
0.2141875 -0.067562498 0.46106246
0.0024000001 0.1576 0.46100003
-0.043000005 0.16800001 0.46000001
-0.0020000001 0.16600001 0.46074998
0.0023076923 0.16461541 0.46569234
-0.047000002 0.17300001 0.46100003
0.0030769233 0.17146155 0.46346155
0.016857143 0.18557145 0.46300003
0.021000002 0.18775001 0.46775001
0.017500002 0.19000001 0.46200001
0.024181819 0.19127274 0.46445456
0.035749998 0.191 0.46387503
0.044750001 0.193625 0.46425003
0.055444453 0.19800003 0.46444449
0.0625 0.19900002 0.46625
0.067250006 0.20025 0.46450004
0.073600009 0.20199999 0.46480003
0.084000014 0.20350002 0.46233335
0.0059999996 0.16666667 0.47066668
0.025 0.18850002 0.47250003
0.026800001 0.1908 0.47200003
0.032250002 0.19187501 0.47262502
0.048 0.19600001 0.47400004
0.053142853 0.19814287 0.47385716
0.060000002 0.19900002 0.47400004
0.065333337 0.20033334 0.47266671
0.07333333 0.20233333 0.47200003
0.083000004 0.20550001 0.47100002
