# .PCD v0.7 - Point Cloud Data file format
VERSION 0.7
FIELDS x y z rgb
SIZE 4 4 4 4
TYPE F F F U
COUNT 1 1 1 1
WIDTH 1257
HEIGHT 1
VIEWPOINT 0 0 0 1 0 0 0
POINTS 1257
DATA ascii
-0.053000003 0.11700001 0.89700001 6389164
-0.050000001 0.11700001 0.89400005 6980528
-0.046000004 0.116 0.89000005 7242932
-0.042000003 0.115 0.88600004 7242931
-0.038000003 0.115 0.88300002 6980272
-0.035 0.115 0.88000005 6914480
-0.031000001 0.11400001 0.87600005 6717102
-0.028000001 0.11400001 0.87300003 6191271
-0.024 0.11300001 0.87000006 5927587
-0.021000002 0.11300001 0.86800003 5531285
-0.017000001 0.11300001 0.86500007 5465234
-0.013 0.112 0.86300004 5531026
-0.010000001 0.112 0.86200005 4609410
-0.0070000002 0.112 0.86100006 4543617
-0.003 0.112 0.85900003 4608896
0 0.112 0.85800004 4411518
0.0040000002 0.112 0.85700005 3689857
0.0070000002 0.11100001 0.85500002 3624579
0.011000001 0.11100001 0.85400003 3624579
0.014 0.11100001 0.85200006 3230080
0.017000001 0.11100001 0.85100001 3426686
0.021000002 0.11100001 0.85000002 3361150
0.024 0.11100001 0.84900004 3361150
0.027000001 0.11000001 0.84800005 3230078
0.031000001 0.11000001 0.84700006 3230079
0.034000002 0.11000001 0.84600002 3295872
0.037 0.11000001 0.84500003 3296132
0.041000001 0.11000001 0.84500003 3230600
0.044000003 0.11000001 0.84400004 3231370
0.047000002 0.11000001 0.84400004 3559052
0.051000003 0.11000001 0.84400004 3624846
0.054000001 0.11000001 0.84400004 3625361
0.058000002 0.11000001 0.84400004 3756949
0.061000004 0.11000001 0.84300005 3823513
0.064000003 0.11000001 0.84300005 3757721
0.068000004 0.11000001 0.84200007 3889566
0.071000002 0.11000001 0.84300005 4020897
0.074000001 0.11000001 0.84300005 4086432
0.078000002 0.11000001 0.84400004 4218017
0.081 0.11000001 0.84400004 4152739
0.085000001 0.11000001 0.84400004 4153253
0.088000007 0.11000001 0.84400004 4219304
0.092000008 0.11000001 0.84500003 4744106
0.095000006 0.11100001 0.84600002 4678828
0.099000007 0.11100001 0.84600002 4612780
0.10200001 0.11100001 0.84600002 4941489
0.105 0.11100001 0.84600002 4745140
0.109 0.11100001 0.84600002 4876469
0.112 0.11100001 0.84600002 5270713
0.116 0.11100001 0.84600002 5599933
0.119 0.11100001 0.84700006 5862846
0.123 0.11100001 0.84700006 6126018
0.126 0.11100001 0.84700006 6126018
0.13000001 0.11100001 0.84800005 6323397
0.133 0.11100001 0.84800005 6257604
0.13700001 0.11100001 0.84900004 6323397
0.141 0.112 0.85000002 6192324
0.14400001 0.112 0.85100001 6258117
0.148 0.112 0.85100001 6126531
0.15200001 0.112 0.85300004 6126529
0.155 0.112 0.85300004 6389701
0.15900001 0.112 0.85400003 6323910
0.163 0.11300001 0.85500002 6193094
0.16600001 0.11300001 0.85700005 6521545
0.17 0.11300001 0.85800004 6521546
0.17400001 0.11300001 0.86000001 6784718
0.178 0.11400001 0.86200005 6587852
0.18200001 0.11400001 0.86400002 6917074
0.186 0.11400001 0.86600006 7311314
0.19000001 0.115 0.86700004 7376849
0.19400001 0.115 0.86800003 7573714
0.19800001 0.115 0.86900002 7705301
0.20100001 0.115 0.86900002 7705302
0.20500001 0.115 0.86800003 7639507
0.58200002 0.31100002 2.3410001 5854809
0.59100002 0.31 2.335 5658202
0.60000002 0.31 2.3330002 5592408
0.61000001 0.31 2.3310001 5526614
0.62100005 0.31100002 2.335 5395028
0.634 0.31300002 2.3460002 5328724
0.64400005 0.31300002 2.3490002 5197138
0.65500003 0.31400001 2.352 4671051
0.66600001 0.31400001 2.3530002 3947839
0.67800003 0.31600001 2.3600001 4474183
0.68900001 0.31600001 2.3620002 4408390
0.70100003 0.317 2.3690002 4408646
0.71200001 0.31800002 2.3710001 4145218
0.72200006 0.31800002 2.3700001 3684411
0.73200005 0.31800002 2.3690002 3289397
0.74200004 0.31800002 2.368 3157812
0.75100005 0.31800002 2.3640001 3092020
0.76100004 0.31800002 2.3610001 3223606
0.77000004 0.31800002 2.358 5921632
0.77700001 0.30100003 2.227 6382445
0.78000003 0.29900002 2.2080002 3486522
0.78500003 0.29700002 2.1930001 3749951
0.79200006 0.29700002 2.1850002 4670800
0.79800004 0.296 2.1750002 5528934
0.80500007 0.29500002 2.1660001 5592674
0.98100007 0.347 2.546 4143678
0.99400002 0.34800002 2.5500002 4669765
1.008 0.34900001 2.5540001 4538177
1.0250001 0.35200003 2.5680001 4406591
1.3330001 0.37100002 2.638 1382172
1.217 0.32800001 2.3140001 9736093
1.22 0.32600001 2.2980001 11313072
1.225 0.32500002 2.2850001 8020592
1.225 0.32200003 2.263 9450576
1.2240001 0.31900001 2.2390001 10633568
1.228 0.31800002 2.2260001 10774657
1.2360001 0.317 2.2190001 11891341
1.245 0.317 2.214 14723003
1.256 0.317 2.2130001 12225952
1.268 0.31800002 2.2120001 15196142
1.2780001 0.31800002 2.21 11643587
1.2880001 0.31800002 2.207 10636906
1.299 0.31800002 2.204 14452128
1.3110001 0.31900001 2.2050002 12152193
1.332 0.32200003 2.22 11839929
1.3490001 0.32300001 2.2280002 9405077
1.36 0.324 2.2250001 9996699
1.3700001 0.324 2.2220001 10130336
1.3790001 0.32300001 2.2150002 10588066
1.3890001 0.32300001 2.2120001 13090256
1.4020001 0.324 2.2120001 8873084
1.414 0.324 2.2110002 10172501
-1.7650001 0.42100003 2.786 6973548
-1.7500001 0.42000002 2.7870002 6974060
-1.7350001 0.42000002 2.7880001 6973547
-1.72 0.41900003 2.789 6973548
-1.705 0.41900003 2.7910001 7039342
-1.6910001 0.41800001 2.7930002 7039342
-1.6760001 0.41700003 2.7930002 6973549
-1.6620001 0.41700003 2.7950001 7039343
-1.649 0.41700003 2.799 7170926
-1.6350001 0.41700003 2.802 7170924
-1.6220001 0.41600001 2.8050001 7170924
-1.6100001 0.41600001 2.8100002 7170926
-1.5960001 0.41600001 2.812 7237232
-1.5810001 0.41500002 2.812 7171439
-1.567 0.41500002 2.8140001 7302512
-1.5530001 0.41400003 2.8150001 7236720
-1.5380001 0.41400003 2.8150001 7368307
-1.5230001 0.41300002 2.8150001 7368307
-1.506 0.41200003 2.8100002 7368564
-1.483 0.40900001 2.7940001 9802648
-1.0370001 0.29100001 1.9920001 2564649
-1.028 0.29100001 1.9950001 2564648
-1.021 0.29100001 2.0010002 7564916
-1.406 0.40800002 2.812 7302772
-1.3970001 0.40800002 2.8210001 2434092
-1.013 0.30400002 2.1090002 2631471
-1.001 0.303 2.1070001 2697007
-0.98600006 0.30200002 2.0970001 2697007
-0.97700006 0.30200002 2.1000001 2565678
-0.96600002 0.30100003 2.0970001 2565678
-0.96000004 0.30200002 2.1060002 2500142
-0.95300007 0.30200002 2.1130002 2434349
-0.94700003 0.303 2.1240001 2303533
-0.93900007 0.30400002 2.128 2434603
-0.93200004 0.30400002 2.135 2369067
-0.92400002 0.30500001 2.1400001 2369326
-0.91600007 0.30500001 2.1470001 2237740
-0.90900004 0.30600002 2.1530001 2368555
-0.90200007 0.30600002 2.1600001 2368557
-0.89600003 0.30700001 2.1700001 2368558
-0.88800007 0.30800003 2.1760001 2368556
-0.87800002 0.30800003 2.1780002 2237228
-0.86800003 0.30800003 2.1780002 2171949
-0.85900003 0.30800003 2.181 2369328
-0.85000002 0.30700001 2.1820002 2500144
-0.84000003 0.30700001 2.184 2171691
-0.83200002 0.30700001 2.187 2040361
-0.82400006 0.30800003 2.194 2237742
-0.81400001 0.30800003 2.194 2171949
-0.80600005 0.30800003 2.2 2303534
-0.79900002 0.30900002 2.2060001 2106155
-0.79000002 0.30900002 2.2090001 2237742
-0.78300005 0.31 2.2180002 2303535
-0.77400005 0.31 2.2220001 2303535
-0.76500005 0.31 2.2240002 2369328
-0.75600004 0.31 2.2260001 2303535
-0.74600005 0.31 2.2260001 2368558
-0.73700005 0.31 2.2280002 2368558
-0.72600001 0.30900002 2.227 2500143
-0.71700001 0.30900002 2.227 2500143
-0.70500004 0.30800003 2.223 2434351
-0.69600004 0.30800003 2.223 2434351
-0.68500006 0.30700001 2.2210002 2368558
-0.67400002 0.30700001 2.2160001 2434351
-0.66300005 0.30600002 2.2110002 2368558
-0.65200001 0.30500001 2.2080002 2368558
-0.64200002 0.30400002 2.2050002 2368556
-0.63100004 0.303 2.1990001 2368556
-0.61900002 0.30200002 2.1930001 2106154
-0.61000001 0.30200002 2.1950002 2303020
-0.59900004 0.30100003 2.1880002 2106154
-0.588 0.30000001 2.181 4141360
-0.57700002 0.29900002 2.177 6837589
-0.164 0.264 1.9590001 5994414
-0.155 0.26200002 1.95 5929135
-0.061000004 0.12100001 0.89700001 6191788
-0.057000004 0.12 0.89200002 6322861
-0.053000003 0.119 0.88900006 6323121
-0.049000002 0.119 0.88500005 6322865
-0.045000002 0.11800001 0.88100004 6717880
-0.042000003 0.11800001 0.87700003 6783159
-0.038000003 0.11700001 0.87300003 6783672
-0.034000002 0.11700001 0.87000006 6652601
-0.031000001 0.116 0.86600006 6455479
-0.027000001 0.116 0.86400002 6256815
-0.024 0.116 0.86100006 5993643
-0.020000001 0.115 0.85900003 5663910
-0.017000001 0.115 0.85700005 5664166
-0.013 0.115 0.85500002 5466789
-0.010000001 0.115 0.85400003 5467049
-0.0070000002 0.11400001 0.85300004 5335463
-0.003 0.11400001 0.85100001 5203625
0 0.11400001 0.85000002 4677280
0.0040000002 0.11400001 0.84800005 4677792
0.0070000002 0.11400001 0.84700006 4546207
0.010000001 0.11300001 0.84500003 4546465
0.014 0.11300001 0.84400004 4612516
0.017000001 0.11300001 0.84300005 4678053
0.020000001 0.11300001 0.84200007 4612775
0.024 0.11300001 0.84100002 4678824
0.027000001 0.11300001 0.84000003 4744877
0.030000001 0.11300001 0.83900005 4876207
0.034000002 0.11300001 0.83800006 4745395
0.037 0.112 0.83700001 4745394
0.040000003 0.112 0.83600003 4811190
0.044000003 0.112 0.83600003 5074361
0.047000002 0.112 0.83500004 5205435
0.050000001 0.112 0.83500004 4942263
0.054000001 0.112 0.83500004 5139900
0.057000004 0.112 0.83500004 5008313
0.060000002 0.112 0.83400005 4942779
0.064000003 0.112 0.83400005 4943036
0.067000002 0.112 0.83300006 4746170
0.07 0.112 0.83300006 4746170
0.074000001 0.112 0.83300006 4614840
0.077000007 0.112 0.83400005 4876983
0.080000006 0.112 0.83400005 4877240
0.084000006 0.112 0.83500004 4745656
0.087000005 0.112 0.83500004 4483254
0.091000006 0.11300001 0.83500004 4811445
0.094000004 0.11300001 0.83500004 4745654
0.097000003 0.11300001 0.83600003 4680119
0.101 0.11300001 0.83600003 4614584
0.104 0.11300001 0.83600003 4876984
0.108 0.11300001 0.83600003 5074361
0.11100001 0.11300001 0.83700001 5074362
0.115 0.11300001 0.83700001 5403326
0.11800001 0.11300001 0.83700001 5600447
0.12100001 0.11300001 0.83700001 5797312
0.125 0.11300001 0.83700001 5797568
0.12800001 0.11300001 0.83800006 6060484
0.132 0.11300001 0.83800006 5994690
0.13500001 0.11400001 0.83900005 6126531
0.13900001 0.11400001 0.84000003 6323910
0.14300001 0.11400001 0.84100002 6126532
0.14600001 0.11400001 0.84100002 6126788
0.15000001 0.11400001 0.84200007 6126531
0.15300001 0.11400001 0.84300005 6389703
0.15700001 0.115 0.84400004 6126531
0.16100001 0.115 0.84500003 6258117
0.16500001 0.115 0.84700006 6587083
0.16800001 0.115 0.84800005 6587082
0.17200001 0.116 0.85000002 6916301
0.17600001 0.116 0.85200006 6982093
0.18000001 0.116 0.85400003 7179471
0.18400002 0.11700001 0.85600007 7442643
0.18800001 0.11700001 0.85900003 7705815
0.192 0.11700001 0.86000001 7771093
0.19600001 0.11800001 0.86200005 7903194
0.20100001 0.11800001 0.86500007 7903192
0.20400001 0.11800001 0.86600006 7903962
0.208 0.119 0.86700004 7508433
0.21200001 0.119 0.86700004 7573708
0.61200005 0.32100001 2.3390002 4210500
0.62200004 0.32100001 2.3390002 4342086
0.63500005 0.32300001 2.3490002 4342086
0.64500004 0.32300001 2.3510001 4539465
0.65700001 0.324 2.3560002 4407880
0.66800004 0.32500002 2.3590002 4473673
0.68000001 0.32600001 2.3660002 4407879
0.69200003 0.32700002 2.3730001 4473673
0.70400006 0.32800001 2.378 4342087
0.71400005 0.32900003 2.378 4210500
0.72500002 0.32900003 2.378 3618363
0.73500001 0.32900003 2.3760002 2960433
0.74400002 0.32900003 2.3730001 2368296
0.75400001 0.32900003 2.3700001 3157812
0.76300001 0.32900003 2.368 3684670
0.77400005 0.32900003 2.368 6053221
0.78000003 0.30800003 2.2050002 3945788
0.78600001 0.30700001 2.194 3947328
0.79200006 0.30600002 2.184 4541522
0.79800004 0.30500001 2.1750002 5856355
0.80600005 0.30400002 2.1680002 5987684
1.33 0.38200003 2.6300001 1579551
1.2210001 0.34200001 2.3430002 8748943
1.223 0.33900002 2.3240001 7368063
1.2270001 0.33800003 2.309 7300990
1.2370001 0.33800003 2.3070002 8155267
1.2360001 0.33500001 2.283 8943760
1.23 0.33000001 2.2490001 8811400
1.228 0.32700002 2.2240002 8282742
1.2370001 0.32700002 2.2190001 9382982
1.245 0.32700002 2.2130001 10696273
1.256 0.32700002 2.2120001 9976138
1.271 0.32800001 2.217 9930906
1.2820001 0.32900003 2.2150002 7826056
1.291 0.32900003 2.2110002 12078964
1.3030001 0.32900003 2.21 10369620
1.319 0.33100003 2.217 10304338
1.3380001 0.333 2.2290001 9538204
1.358 0.33500001 2.2410002 8550794
1.3640001 0.33500001 2.2310002 8418440
1.3720001 0.33400002 2.223 8814479
1.3790001 0.333 2.214 9340823
1.388 0.333 2.21 13288149
1.399 0.333 2.207 10977690
-1.751 0.43300003 2.7870002 6841961
-1.7360001 0.43200001 2.789 6907754
-1.7210001 0.43200001 2.7900002 7039340
-1.7060001 0.43100002 2.7910001 7039084
-1.692 0.43100002 2.7930002 7039340
-1.677 0.43000001 2.7940001 7105131
-1.664 0.43000001 2.7970002 7039338
-1.649 0.42900002 2.799 7039338
-1.636 0.42900002 2.802 7039338
-1.6240001 0.42900002 2.8070002 7170924
-1.6100001 0.42900002 2.8100002 7236719
-1.5960001 0.42900002 2.812 7236975
-1.582 0.42800003 2.8130002 7105646
-1.5690001 0.42800003 2.8170002 7302510
-1.554 0.42700002 2.8170002 7236719
-1.5400001 0.42700002 2.8180001 7434100
-1.5250001 0.42600003 2.8180001 7236721
-1.5070001 0.42400002 2.8110001 7302771
-1.4840001 0.42100003 2.7960002 10131870
-1.0370001 0.29900002 1.9910001 2499369
-1.0270001 0.29900002 1.9920001 2433832
-1.0190001 0.29900002 1.9960001 7499123
-1.021 0.30200002 2.02 7630707
-1.4050001 0.41900003 2.8080001 2631471
-1.391 0.41900003 2.809 2565678
-1.013 0.31 2.0870001 2434092
-0.99600005 0.30800003 2.0730002 2302506
-0.98400003 0.30700001 2.0700002 2434092
-0.97300005 0.30700001 2.069 2236969
-0.96700007 0.30700001 2.0760002 2368811
-0.95600003 0.30700001 2.075 2434603
-0.95300007 0.30800003 2.0900002 2303276
-0.94300002 0.30800003 2.092 2303020
-0.93700004 0.30900002 2.1000001 2303533
-0.93000007 0.31 2.1070001 2434603
-0.92200005 0.31 2.112 2434349
-0.91500002 0.31100002 2.1190002 2237227
-0.90800005 0.31100002 2.1260002 2106154
-0.90000004 0.31200001 2.131 2368556
-0.89400005 0.31300002 2.141 2434349
-0.88800007 0.31400001 2.151 2368556
-0.87700003 0.31300002 2.1490002 2171945
-0.87000006 0.31400001 2.1560001 2171947
-0.86100006 0.31400001 2.158 2303277
-0.85000002 0.31300002 2.1570001 2237742
-0.84200007 0.31400001 2.1620002 2368558
-0.83300006 0.31400001 2.164 2368558
-0.82500005 0.31400001 2.1690001 2434351
-0.81500006 0.31400001 2.1680002 2171949
-0.80600005 0.31400001 2.1720002 2237742
-0.79800004 0.31400001 2.1760001 2303535
-0.79000002 0.31500003 2.1820002 2237742
-0.78200006 0.31500003 2.1860001 2303278
-0.77500004 0.31600001 2.1960001 2237742
-0.76500005 0.31600001 2.1950002 2237742
-0.75800002 0.317 2.204 2237742
-0.74800003 0.31600001 2.2030001 2237742
-0.73900002 0.31600001 2.204 2369328
-0.72900003 0.31600001 2.204 2237742
-0.71900004 0.31500003 2.204 2171435
-0.70900005 0.31500003 2.2020001 2565935
-0.69900006 0.31500003 2.2030001 2368558
-0.68800002 0.31400001 2.1990001 2237742
-0.67800003 0.31300002 2.1960001 2171691
-0.66800004 0.31300002 2.194 2302764
-0.65600002 0.31100002 2.187 2368557
-0.64400005 0.31 2.1800001 2368045
-0.63300002 0.30900002 2.174 2368045
-0.62300003 0.30800003 2.171 2368301
-0.61400002 0.30900002 2.174 2236715
-0.60300004 0.30700001 2.1660001 2236459
-0.59500003 0.30800003 2.1720002 2170919
-0.58500004 0.30700001 2.1690001 2236970
-0.57600003 0.30700001 2.1690001 3551022
-0.064000003 0.12400001 0.89300007 5797808
-0.060000002 0.123 0.89000005 5797293
-0.056000002 0.123 0.88500005 5797553
-0.053000003 0.12200001 0.88100004 5929139
-0.049000002 0.12100001 0.87700003 5929654
-0.045000002 0.12100001 0.87300003 6060986
-0.041000001 0.12 0.86800003 6258104
-0.038000003 0.12 0.86500007 6323897
-0.034000002 0.119 0.86100006 6323897
-0.031000001 0.119 0.85800004 6323640
-0.027000001 0.11800001 0.85500002 6257594
-0.024 0.11800001 0.85300004 5862838
-0.020000001 0.11800001 0.85200006 5599413
-0.017000001 0.11800001 0.85000002 5664953
-0.013 0.11700001 0.84900004 5533367
-0.010000001 0.11700001 0.84700006 5336243
-0.0060000001 0.11700001 0.84600002 5336756
-0.003 0.11700001 0.84400004 5205428
0 0.116 0.84200007 5139636
0.0040000002 0.116 0.84100002 5204917
0.0070000002 0.116 0.83900005 5204917
0.010000001 0.116 0.83800006 5205173
0.014 0.116 0.83600003 5073844
0.017000001 0.115 0.83500004 4942772
0.020000001 0.115 0.83400005 4942773
0.024 0.115 0.83300006 5008567
0.027000001 0.115 0.83200002 5008569
0.030000001 0.115 0.83100003 5074362
0.033 0.115 0.83000004 4943035
0.037 0.115 0.82900006 4943294
0.040000003 0.115 0.82800007 4943807
0.043000001 0.115 0.82800007 4943808
0.047000002 0.11400001 0.82700002 4877755
0.050000001 0.11400001 0.82700002 4943805
0.053000003 0.115 0.82700002 5009087
0.056000002 0.115 0.82700002 4877758
0.060000002 0.11400001 0.82600003 4878271
0.063000001 0.11400001 0.82500005 4944064
0.066 0.11400001 0.82500005 4746686
0.07 0.11400001 0.82500005 4944065
0.073000006 0.11400001 0.82500005 4549307
0.076000005 0.11400001 0.82500005 4877758
0.080000006 0.115 0.82600003 5008830
0.083000004 0.115 0.82600003 4943037
0.086000003 0.115 0.82600003 4877244
0.090000004 0.115 0.82600003 5074623
0.093000002 0.115 0.82600003 4877244
0.096000001 0.115 0.82700002 5074364
0.1 0.115 0.82700002 5008315
0.10300001 0.115 0.82700002 4943294
0.10700001 0.115 0.82700002 5074878
0.11000001 0.115 0.82800007 5271743
0.11300001 0.115 0.82800007 5469121
0.11700001 0.115 0.82800007 5600963
0.12 0.115 0.82800007 5600706
0.12400001 0.115 0.82800007 5600706
0.127 0.116 0.82900006 5863878
0.13100001 0.116 0.83000004 5929671
0.134 0.116 0.83100003 5863876
0.13800001 0.116 0.83100003 5863876
0.141 0.116 0.83300006 6061255
0.14500001 0.116 0.83300006 6192841
0.148 0.11700001 0.83400005 6127047
0.15200001 0.11700001 0.83500004 6324427
0.156 0.11700001 0.83600003 6258634
0.15900001 0.11700001 0.83700001 6456013
0.163 0.11700001 0.83900005 6653392
0.16700001 0.11800001 0.84000003 6784976
0.171 0.11800001 0.84200007 6982355
0.17500001 0.11800001 0.84400004 7113940
0.17900001 0.119 0.84600002 7837147
0.18300001 0.119 0.84800005 7968732
0.18700001 0.12 0.85100001 8297439
0.19100001 0.12 0.85300004 8494817
0.19500001 0.12 0.85400003 8560610
0.19900002 0.12100001 0.85800004 8561122
0.20300001 0.12100001 0.86000001 8692962
0.208 0.12200001 0.86400002 8429789
0.21200001 0.12200001 0.86700004 8166877
0.21600001 0.12200001 0.86800003 7442382
0.63900006 0.33500001 2.365 4671309
0.65000004 0.33600003 2.368 4736845
0.66100001 0.33600003 2.3700001 4736845
0.67300004 0.33700001 2.375 4670794
0.68500006 0.33800003 2.381 4671051
0.69500005 0.33900002 2.3820002 4605258
0.70600003 0.33900002 2.3830001 4407879
0.71600002 0.33900002 2.3820002 4276293
0.72600001 0.33900002 2.381 3618364
0.73500001 0.33900002 2.3770001 3355191
0.74500006 0.33900002 2.3740001 3092019
0.75400001 0.33900002 2.3710001 3420984
0.76400006 0.33900002 2.3700001 4473930
0.77500004 0.33900002 2.3720002 5921639
0.77700001 0.32000002 2.2250001 5000276
0.78100002 0.31800002 2.2080002 3946816
0.78600001 0.31600001 2.194 4078915
0.79300004 0.31500003 2.1850002 4607830
0.80000001 0.31400001 2.1780002 6053482
0.80800003 0.31400001 2.174 6514539
1.2180001 0.35100001 2.3380001 7236218
1.2260001 0.35100001 2.3300002 6840689
1.235 0.35000002 2.3230002 7367033
1.2570001 0.354 2.3430002 9077138
1.2590001 0.35100001 2.3230002 9144214
1.24 0.34300002 2.2670002 10722221
1.238 0.34 2.2410002 9271430
1.2410001 0.33800003 2.2260001 8680314
1.253 0.33900002 2.2260001 9131876
1.263 0.33900002 2.223 9262438
1.279 0.34 2.23 10917539
1.286 0.34 2.2210002 11706547
1.296 0.34 2.2180002 9472156
1.3160001 0.34200001 2.2310002 8483201
1.376 0.34800002 2.25 7499650
1.3790001 0.34600002 2.2340002 7565185
1.383 0.34400001 2.22 9868968
1.3900001 0.34400001 2.2120001 9538974
1.3980001 0.34300002 2.204 8815507
-1.7520001 0.44600001 2.7880001 6973031
-1.738 0.44500002 2.7910001 7104618
-1.7240001 0.44500002 2.7930002 7039083
-1.7090001 0.44500002 2.7950001 6907752
-1.6950001 0.44400004 2.7970002 7039597
-1.6800001 0.44300002 2.7980001 7170926
-1.6660001 0.44300002 2.8000002 6973547
-1.6530001 0.44300002 2.8030002 7039853
-1.6380001 0.44200003 2.8050001 7039853
-1.626 0.44200003 2.809 7039595
-1.6120001 0.44200003 2.8110001 7039853
-1.598 0.44100001 2.8140001 7171182
-1.5840001 0.44100001 2.8150001 7170926
-1.5700001 0.44000003 2.8170002 7236717
-1.5550001 0.44000003 2.8170002 7170925
-1.5410001 0.43900001 2.8190002 7302512
-1.5270001 0.43900001 2.8190002 7236719
-1.5090001 0.43700001 2.8140001 7171184
-1.488 0.43500003 2.802 8289666
-1.039 0.30900002 1.9950001 2302506
-1.028 0.30800003 1.9940001 2236198
-1.021 0.30800003 1.9990001 7499637
-1.021 0.31100002 2.02 7434100
-1.401 0.43000001 2.7980001 2434092
-1.016 0.31800002 2.0710001 2236970
-1 0.31500003 2.0600002 2236713
-0.98400003 0.31300002 2.0470002 2236713
-0.97000003 0.31100002 2.039 2302506
-0.96000004 0.31100002 2.039 2499885
-0.95300007 0.31100002 2.0450001 2368556
-0.94600004 0.31200001 2.052 2106154
-0.93900007 0.31300002 2.0580001 2171947
-0.92900002 0.31200001 2.0580001 2237226
-0.92400002 0.31400001 2.0700002 2303276
-0.91700006 0.31400001 2.0760002 2303532
-0.91000003 0.31500003 2.0840001 2237738
-0.90300006 0.31600001 2.0910001 2237740
-0.89400005 0.31600001 2.0930002 2171947
-0.88900006 0.317 2.1040001 2434603
-0.88200003 0.317 2.1110001 2434349
-0.87500006 0.31800002 2.118 2631728
-0.86700004 0.31900001 2.1230001 2369328
-0.86000001 0.31900001 2.1300001 2368814
-0.85200006 0.32000002 2.135 2369329
-0.84200007 0.31900001 2.1360002 2369328
-0.83400005 0.32000002 2.1400001 2368558
-0.82400006 0.31900001 2.1400001 2434351
-0.81500006 0.31900001 2.1420002 2302765
-0.80700004 0.32000002 2.1460001 2303278
-0.79600006 0.31900001 2.1440001 2040363
-0.79000002 0.32000002 2.154 2303535
-0.78000003 0.31900001 2.1520002 2171949
-0.77500004 0.32100001 2.1650002 2303022
-0.76500005 0.32100001 2.1670001 2369071
-0.75600004 0.32100001 2.1680002 2171949
-0.75000006 0.32200003 2.1790001 2237999
-0.74000001 0.32200003 2.177 2171949
-0.73100001 0.32200003 2.181 2369328
-0.72000003 0.32100001 2.177 2434351
-0.71100003 0.32100001 2.1780002 2368558
-0.70000005 0.32000002 2.174 2434351
-0.69100004 0.32000002 2.1750002 2500144
-0.68100005 0.32000002 2.1750002 2368558
-0.67000002 0.31900001 2.171 2303535
-0.65900004 0.31800002 2.1650002 2369328
-0.64700001 0.31600001 2.1560001 2237740
-0.63700002 0.31500003 2.154 2369326
-0.62600005 0.31400001 2.1490002 2434351
-0.61500001 0.31300002 2.1420002 2368557
-0.60600001 0.31300002 2.1450002 2499885
-0.597 0.31300002 2.1440001 2368299
-0.588 0.31300002 2.1440001 2171179
-0.57800001 0.31200001 2.1430001 2104869
-0.56900001 0.31200001 2.1450002 1842725
-0.56 0.31200001 2.1460001 6116693
-0.064000003 0.126 0.88600004 5731764
-0.060000002 0.126 0.88300002 5666229
-0.056000002 0.125 0.87700003 5666743
-0.052000001 0.12400001 0.87300003 5600952
-0.048 0.12400001 0.86900002 5732795
-0.045000002 0.123 0.86500007 5601468
-0.041000001 0.123 0.86100006 5864380
-0.037 0.12200001 0.85800004 5930175
-0.034000002 0.12200001 0.85400003 5995713
-0.030000001 0.12100001 0.85100001 6060990
-0.027000001 0.12100001 0.84800005 5797564
-0.023000002 0.12 0.84600002 5665978
-0.020000001 0.12 0.84500003 5534651
-0.017000001 0.12 0.84300005 5403323
-0.013 0.12 0.84100002 5403066
-0.010000001 0.12 0.84000003 5600187
-0.0060000001 0.119 0.83800006 5337273
-0.003 0.119 0.83600003 5271481
0 0.119 0.83400005 5271226
0.0040000002 0.119 0.83300006 5534396
0.0070000002 0.11800001 0.83100003 5337532
0.010000001 0.11800001 0.83000004 5403326
0.014 0.11800001 0.82900006 5272001
0.017000001 0.11800001 0.82800007 5206465
0.020000001 0.11800001 0.82600003 5140929
0.023000002 0.11700001 0.82500005 5075138
0.027000001 0.11700001 0.82400006 4944322
0.030000001 0.11700001 0.82400006 4944324
0.033 0.11700001 0.82300001 4944064
0.036000002 0.11700001 0.82200003 4944065
0.040000003 0.11700001 0.82100004 4943810
0.043000001 0.11700001 0.82100004 5075138
0.046000004 0.11700001 0.82000005 4943552
0.049000002 0.11700001 0.82000005 5075138
0.053000003 0.11700001 0.82000005 5009344
0.056000002 0.11700001 0.82000005 5075137
0.059000004 0.11700001 0.81900007 5140931
0.062000003 0.11700001 0.81800002 5075138
0.066 0.11700001 0.81800002 4877761
0.069000006 0.11700001 0.81800002 5075140
0.072000004 0.11700001 0.81700003 5206726
0.076000005 0.11700001 0.81800002 5337540
0.079000004 0.11700001 0.81800002 5075138
0.082000002 0.11700001 0.81800002 5075138
0.086000003 0.11700001 0.81800002 5009345
0.089000002 0.11700001 0.81800002 5271747
0.092000008 0.11700001 0.81900007 5074625
0.096000001 0.11700001 0.81900007 5008575
0.099000007 0.11700001 0.81900007 5074367
0.10200001 0.11700001 0.82000005 5140931
0.10600001 0.11700001 0.82000005 5140930
0.109 0.11700001 0.82000005 5206723
0.112 0.11700001 0.82000005 5469892
0.116 0.11700001 0.82000005 5535687
0.119 0.11800001 0.82000005 5535686
0.123 0.11800001 0.82100004 5601222
0.126 0.11800001 0.82100004 5601734
0.12900001 0.11800001 0.82200003 5930185
0.133 0.11800001 0.82300001 5995977
0.13600001 0.11800001 0.82300001 5995722
0.14 0.11800001 0.82400006 5995721
0.14300001 0.119 0.82500005 5995464
0.147 0.119 0.82600003 6324174
0.15100001 0.119 0.82700002 6324174
0.15400001 0.119 0.82900006 6522320
0.15800001 0.12 0.83000004 6456526
0.162 0.12 0.83100003 6654162
0.16500001 0.12 0.83200002 6982866
0.16900001 0.12 0.83400005 7508950
0.17300001 0.12100001 0.83600003 8034777
0.177 0.12100001 0.83800006 8495329
0.18100001 0.12200001 0.84100002 8824294
0.185 0.12200001 0.84300005 9021928
0.18900001 0.12200001 0.84500003 9218793
0.193 0.123 0.84700006 9350633
0.19700001 0.123 0.85000002 9284585
0.20200001 0.12400001 0.85300004 9284326
0.20600002 0.12400001 0.85700005 8955620
0.21100001 0.125 0.86000001 8364510
0.215 0.125 0.86400002 7968472
0.21900001 0.126 0.86500007 7705042
0.65200001 0.34600002 2.3730001 4671565
0.66200006 0.347 2.3740001 4671565
0.67400002 0.34800002 2.3800001 4671565
0.68600005 0.34900001 2.3840001 4605772
0.69700003 0.34900001 2.3860002 4539979
0.70700002 0.34900001 2.3860002 4408392
0.71700001 0.35000002 2.3860002 4276806
0.72700006 0.34900001 2.3830001 3815743
0.73600006 0.34900001 2.3790002 3552570
0.74500006 0.34900001 2.375 3618363
0.75500005 0.34900001 2.3720002 3618618
0.76400006 0.34900001 2.3690002 5000275
0.77700001 0.35000002 2.375 5789794
0.78100002 0.32700002 2.2080002 3815742
0.78700006 0.32500002 2.1950002 4276296
0.79400003 0.32500002 2.187 4805208
0.80200005 0.32500002 2.184 6054252
0.81200004 0.32500002 2.1830001 7305599
1.2040001 0.36300001 2.355 8487308
1.21 0.36200002 2.3430002 9276311
1.2140001 0.36000001 2.3280001 7302523
1.228 0.36100003 2.3330002 8026246
1.238 0.36100003 2.329 8486797
1.256 0.36400002 2.3400002 9143957
1.2570001 0.36100003 2.319 9540514
1.2470001 0.35500002 2.279 10328488
1.2570001 0.35500002 2.2750001 8353158
1.253 0.35100001 2.2460001 9998494
1.266 0.35200003 2.2480001 10064291
1.2770001 0.35200003 2.2470002 8483715
1.296 0.35500002 2.2580001 10196134
1.309 0.35600001 2.2610002 8814221
1.335 0.35700002 2.2620001 11118524
1.3740001 0.36200002 2.286 9867939
1.3870001 0.36300001 2.2870002 9670817
1.3870001 0.36000001 2.2670002 7105148
1.3870001 0.35800001 2.2450001 8947094
1.3870001 0.35500002 2.2260001 8815508
1.3950001 0.35500002 2.2190001 8157834
-1.738 0.45800003 2.789 7104363
-1.725 0.45800003 2.7930002 6972777
-1.7110001 0.45700002 2.7960002 7038824
-1.6960001 0.45700002 2.7970002 7104617
-1.682 0.45600003 2.8000002 7170410
-1.6680001 0.45600003 2.802 6973545
-1.6550001 0.45600003 2.8060002 7039338
-1.6400001 0.45500001 2.8060002 7105131
-1.6270001 0.45500001 2.8100002 7105131
-1.6140001 0.45500001 2.8130002 7039597
-1.6 0.45400003 2.8150001 7105133
-1.585 0.45300001 2.8150001 7236719
-1.5710001 0.45300001 2.8180001 7433581
-1.557 0.45300001 2.8190002 7301996
-1.5430001 0.45200002 2.8200002 7433585
-1.5280001 0.45200002 2.8210001 7367789
-1.5130001 0.45100003 2.8190002 7302512
-1.493 0.44800001 2.809 7236721
-1.46 0.44200003 2.7750001 2039334
-1.0470001 0.32000002 2.0090001 2105127
-1.029 0.317 1.9940001 2170405
-1.021 0.317 1.9990001 7302514
-1.0220001 0.32000002 2.02 7434100
-1.006 0.32300001 2.0510001 2105384
-0.98600006 0.32000002 2.0300002 2171177
-0.97200006 0.31800002 2.0210001 2171431
-0.95900005 0.31600001 2.0150001 2171433
-0.95000005 0.31600001 2.0170002 2303017
-0.94000006 0.31600001 2.0180001 2434091
-0.93200004 0.31600001 2.0210001 2302763
-0.92400002 0.31600001 2.0250001 2368299
-0.91400003 0.31600001 2.0240002 2434349
-0.91000003 0.31800002 2.0380001 2368813
-0.90400004 0.31900001 2.0470002 2368556
-0.89700001 0.31900001 2.0530002 2237740
-0.89200002 0.32000002 2.0630002 2237741
-0.88500005 0.32100001 2.0700002 2303535
-0.87900007 0.32200003 2.0800002 2565935
-0.87000006 0.32200003 2.0810001 2500142
-0.86200005 0.32200003 2.0870001 2434351
-0.85500002 0.32300001 2.0940001 2631730
-0.84800005 0.324 2.1000001 2435121
-0.84000003 0.324 2.1040001 2435121
-0.83200002 0.324 2.1090002 2435121
-0.82500005 0.32500002 2.1160002 2303535
-0.81600004 0.32500002 2.1170001 2369328
-0.80500007 0.324 2.1140001 2303279
-0.79700005 0.32500002 2.1200001 2368814
-0.78800005 0.324 2.1200001 2500144
-0.77900004 0.32500002 2.1240001 2368558
-0.77200001 0.32500002 2.1300001 2236972
-0.76400006 0.32500002 2.1340001 2106156
-0.75400001 0.32500002 2.1330001 2106156
-0.74700004 0.32600001 2.141 2237742
-0.73800004 0.32600001 2.1430001 2369328
-0.72900003 0.32600001 2.1450002 2435121
-0.72100002 0.32600001 2.1500001 2369328
-0.71200001 0.32600001 2.1500001 2303535
-0.70300001 0.32600001 2.1520002 2171949
-0.69200003 0.32500002 2.148 2434351
-0.68100005 0.324 2.1450002 2434351
-0.67200005 0.324 2.1460001 2368558
-0.65900004 0.32200003 2.1340001 2237486
-0.64900005 0.32100001 2.131 2303535
-0.63800001 0.32100001 2.1270001 2303020
-0.62600005 0.31900001 2.1170001 2500142
-0.61800003 0.31900001 2.1190002 2303535
-0.60700005 0.31800002 2.115 2434351
-0.59800005 0.31800002 2.1140001 2368558
-0.588 0.317 2.112 2433837
-0.58000004 0.317 2.1160002 2368560
-0.57100004 0.317 2.1170001 2236713
-0.56300002 0.31800002 2.1210001 1908523
-0.55700004 0.31900001 2.1300001 3288112
-0.54800004 0.31900001 2.1330001 6050124
-0.063000001 0.12900001 0.88000005 5666746
-0.059000004 0.12800001 0.87600005 5535419
-0.055000003 0.12800001 0.87100005 5535162
-0.052000001 0.127 0.86600006 5798334
-0.048 0.126 0.86200005 5469628
-0.044000003 0.126 0.85800004 5403835
-0.041000001 0.125 0.85400003 5403836
-0.037 0.125 0.85100001 5535422
-0.034000002 0.12400001 0.84700006 5600702
-0.030000001 0.12400001 0.84400004 5534911
-0.027000001 0.123 0.84100002 5600702
-0.023000002 0.123 0.83900005 5337530
-0.020000001 0.123 0.83800006 5337787
-0.016000001 0.12200001 0.83600003 5338043
-0.013 0.12200001 0.83400005 5272251
-0.010000001 0.12200001 0.83300006 5338045
-0.0060000001 0.12200001 0.83100003 5272252
-0.003 0.12100001 0.82800007 5271998
0 0.12100001 0.82700002 5337791
0.0040000002 0.12100001 0.82600003 5206207
0.0070000002 0.12100001 0.82400006 5206977
0.010000001 0.12 0.82300001 5141184
0.013 0.12 0.82200003 5141184
0.017000001 0.12 0.82100004 5206977
0.020000001 0.12 0.82000005 5141184
0.023000002 0.12 0.81900007 5075391
0.026000001 0.12 0.81700003 5075137
0.030000001 0.12 0.81700003 5075137
0.033 0.119 0.81600004 5272517
0.036000002 0.12 0.81600004 5140931
0.039000001 0.119 0.81500006 5140931
0.043000001 0.119 0.81500006 5206724
0.046000004 0.119 0.81400001 5140930
0.049000002 0.119 0.81300002 5206723
0.052000001 0.119 0.81300002 5141444
0.056000002 0.119 0.81300002 5010116
0.059000004 0.119 0.81200004 5009859
0.062000003 0.119 0.81100005 5075651
0.065000005 0.119 0.81100005 5009858
0.068000004 0.119 0.81100005 5075138
0.072000004 0.119 0.81100005 5075138
0.075000003 0.119 0.81100005 5009604
0.078000002 0.119 0.81100005 5075651
0.082000002 0.119 0.81100005 5141444
0.085000001 0.119 0.81100005 5075651
0.088000007 0.119 0.81200004 5206724
0.092000008 0.119 0.81200004 5009345
0.095000006 0.119 0.81200004 4878272
0.098000005 0.119 0.81200004 5075651
0.10200001 0.12 0.81300002 5075651
0.105 0.12 0.81300002 5338822
0.108 0.12 0.81300002 5273029
0.11100001 0.12 0.81300002 5338820
0.115 0.12 0.81300002 5536200
0.11800001 0.12 0.81300002 5667787
0.12100001 0.12 0.81300002 5667274
0.125 0.12 0.81400001 5733067
0.12800001 0.12 0.81400001 5995725
0.132 0.12 0.81600004 5930700
0.13500001 0.12100001 0.81600004 5864907
0.13900001 0.12100001 0.81700003 5864907
0.142 0.12100001 0.81700003 5864907
0.14600001 0.12100001 0.81800002 6127822
0.149 0.12100001 0.82000005 6390479
0.15300001 0.12200001 0.82100004 6587858
0.15700001 0.12200001 0.82200003 7048409
0.16000001 0.12200001 0.82300001 7049430
0.164 0.12200001 0.82500005 7904221
0.16800001 0.123 0.82600003 8297950
0.171 0.123 0.82800007 9153001
0.17600001 0.123 0.83100003 9547757
0.17900001 0.12400001 0.83300006 10074100
0.18300001 0.12400001 0.83500004 10402807
0.18700001 0.125 0.83700001 10731771
0.19100001 0.125 0.83900005 10665724
0.19600001 0.126 0.84300005 10337013
0.2 0.126 0.84500003 10205427
0.20400001 0.127 0.84900004 9547495
0.20900001 0.127 0.85300004 8758752
0.21300001 0.12800001 0.85700005 7903710
0.21800001 0.12900001 0.86000001 7246295
0.223 0.12900001 0.86400002 6128583
0.65100002 0.35500002 2.3690002 4407881
0.66200006 0.35600001 2.3730001 5065812
0.67400002 0.35700002 2.378 5000019
0.68600005 0.35800001 2.3840001 4802897
0.69700003 0.35900003 2.3870001 4803151
0.708 0.35900003 2.3870001 4605772
0.71800005 0.36000001 2.3860002 4408393
0.72700006 0.35900003 2.3830001 3881536
0.73600006 0.35900003 2.3790002 3881536
0.74500006 0.35900003 2.3740001 3947328
0.75400001 0.35800001 2.3690002 3816256
0.76400006 0.35800001 2.3660002 5132115
0.77500004 0.35900003 2.3690002 6052705
0.77700001 0.33800003 2.2220001 4342600
0.78100002 0.33600003 2.2060001 4078657
0.78700006 0.33500001 2.1950002 4277064
0.79500002 0.33400002 2.1900001 4936541
0.80400002 0.33400002 2.187 5595501
0.81700003 0.33600003 2.1960001 8950689
1.2040001 0.37600002 2.3770001 2501430
1.2030001 0.37300003 2.352 7961734
1.2090001 0.37200001 2.3400002 9145754
1.2130001 0.37 2.3260002 6448500
1.2260001 0.37100002 2.3280001 7435138
1.238 0.37100002 2.3280001 8816019
1.2540001 0.37300003 2.335 9144986
1.251 0.36900002 2.306 10000038
1.248 0.36500001 2.2800002 8947351
1.2650001 0.36200002 2.2460001 11053242
1.284 0.36400002 2.2580001 9077653
1.3100001 0.36900002 2.2820001 8814736
1.3290001 0.37100002 2.2930002 11249846
1.3390001 0.37100002 2.2900002 11185596
1.3540001 0.37300003 2.2940001 10922173
1.365 0.37300003 2.2910001 8946580
1.383 0.37500003 2.3010001 9999783
1.3890001 0.37400001 2.2900002 9539233
1.388 0.37100002 2.2670002 7895691
1.3820001 0.36600003 2.2360001 8553619
1.3820001 0.36400002 2.2160001 8092557
-1.7410001 0.47100002 2.7930002 7038570
-1.7270001 0.47100002 2.7950001 6972777
-1.7140001 0.47100002 2.799 7038824
-1.6990001 0.47000003 2.8000002 7038570
-1.6840001 0.46900001 2.8010001 7038570
-1.6700001 0.46900001 2.8040001 6973547
-1.6560001 0.46800002 2.8060002 7105133
-1.6420001 0.46800002 2.809 6973547
-1.6290001 0.46800002 2.8130002 7039340
-1.6150001 0.46700001 2.8140001 7235949
-1.6010001 0.46700001 2.8170002 7301998
-1.5870001 0.46700001 2.8180001 7236719
-1.5730001 0.46600002 2.8190002 7367535
-1.5580001 0.46500003 2.8200002 7301742
-1.544 0.46500003 2.8210001 7367535
-1.5300001 0.46400002 2.8230002 7433582
-1.5150001 0.46400002 2.822 7499120
-1.4950001 0.46100003 2.812 7039340
-1.4720001 0.45800003 2.7960002 2236454
-1.031 0.32600001 1.9970001 2104614
-1.024 0.32700002 2.0040002 7236721
-1.024 0.32900003 2.023 7433842
-0.99600005 0.32900003 2.0280001 1908005
-0.97900003 0.32600001 2.0140002 1974565
-0.96200007 0.32300001 2 2040359
-0.94900006 0.32200003 1.9940001 2040359
-0.93800002 0.32100001 1.9920001 2171431
-0.92700005 0.32000002 1.988 2237224
-0.92000002 0.32100001 1.9940001 2236970
-0.91100007 0.32000002 1.9960001 2237742
-0.90300006 0.32100001 1.9990001 2106154
-0.89700001 0.32100001 2.0070002 2303018
-0.89000005 0.32200003 2.0150001 2368810
-0.88200003 0.32200003 2.0170002 2434349
-0.87600005 0.32300001 2.026 2434349
-0.87100005 0.32500002 2.0380001 2500141
-0.86600006 0.32600001 2.049 2369327
-0.85800004 0.32600001 2.0530002 2369328
-0.85200006 0.32700002 2.062 2435119
-0.84100002 0.32600001 2.0580001 2369326
-0.83600003 0.32800001 2.0700002 2500144
-0.82900006 0.32900003 2.0770001 2565937
-0.82100004 0.32900003 2.0800002 2500400
-0.81100005 0.32800001 2.0800002 2303535
-0.80300003 0.32800001 2.082 2368813
-0.79600006 0.32900003 2.0900002 2631728
-0.78800005 0.32900003 2.0930002 2434348
-0.77800006 0.32900003 2.0930002 2500144
-0.77000004 0.32900003 2.0970001 2434351
-0.76200002 0.33000001 2.102 2434351
-0.75200003 0.32900003 2.1010001 2435121
-0.74600005 0.33000001 2.1090002 2303535
-0.73300004 0.32900003 2.1000001 2369328
-0.72800004 0.33000001 2.1140001 2369328
-0.71800005 0.33000001 2.112 2631730
-0.71100003 0.33000001 2.118 2500914
-0.70100003 0.33000001 2.118 2500914
-0.69300002 0.33000001 2.1220002 2172206
-0.68200004 0.32900003 2.1170001 2368558
-0.67200005 0.32800001 2.1130002 2500144
-0.65800005 0.32600001 2.098 2500144
-0.64900005 0.32600001 2.0990002 2434351
-0.63500005 0.32300001 2.085 2302765
-0.62700003 0.32300001 2.0880001 2434351
-0.61700004 0.32300001 2.0860002 2434351
-0.60700005 0.32200003 2.082 2171949
-0.59800005 0.32200003 2.0810001 2368558
-0.588 0.32100001 2.0800002 2302765
-0.58000004 0.32100001 2.0830002 2236459
-0.57200003 0.32100001 2.085 2039593
-0.565 0.32200003 2.092 2236713
-0.55700004 0.32300001 2.098 2105127
-0.54900002 0.32300001 2.102 2367784
-0.54300004 0.32500002 2.112 8090221
-0.537 0.32600001 2.1240001 3155749
-0.063000001 0.132 0.87300003 6061496
-0.059000004 0.13100001 0.87000006 5535161
-0.055000003 0.13000001 0.86400002 5600955
-0.051000003 0.13000001 0.86000001 5337785
-0.048 0.12900001 0.85600007 5469628
-0.044000003 0.12800001 0.85200006 5469628
-0.040000003 0.12800001 0.84800005 5403835
-0.037 0.127 0.84500003 5272249
-0.033 0.127 0.84100002 5206457
-0.030000001 0.126 0.83800006 5403323
-0.026000001 0.126 0.83500004 5338043
-0.023000002 0.125 0.83300006 5075386
-0.020000001 0.125 0.83200002 4943544
-0.016000001 0.125 0.83000004 5206717
-0.013 0.125 0.82800007 5141440
-0.010000001 0.12400001 0.82600003 5075132
-0.0060000001 0.12400001 0.82500005 5075389
-0.003 0.12400001 0.82200003 5075647
0 0.123 0.82100004 5141441
0.0040000002 0.123 0.82000005 5273027
0.0070000002 0.123 0.81800002 5207234
0.010000001 0.123 0.81700003 5207235
0.013 0.123 0.81600004 5141700
0.017000001 0.123 0.81500006 5141444
0.020000001 0.12200001 0.81300002 4944064
0.023000002 0.12200001 0.81200004 4878529
0.026000001 0.12200001 0.81100005 5141444
0.029000001 0.12200001 0.81100005 5075908
0.033 0.12200001 0.81000006 5010628
0.036000002 0.12200001 0.81000006 5141701
0.039000001 0.12200001 0.80900002 5141701
0.042000003 0.12200001 0.80900002 5075908
0.046000004 0.12200001 0.80800003 5207496
0.049000002 0.12200001 0.80800003 5141703
0.052000001 0.12200001 0.80700004 5207496
0.055000003 0.12200001 0.80700004 5141703
0.058000002 0.12200001 0.80700004 5141703
0.062000003 0.12100001 0.80600005 5010117
0.065000005 0.12100001 0.80500007 5141703
0.068000004 0.12100001 0.80500007 5141701
0.071000002 0.12100001 0.80400002 5009859
0.074000001 0.12100001 0.80400002 5010116
0.078000002 0.12100001 0.80500007 5009860
0.081 0.12100001 0.80500007 5010374
0.084000006 0.12200001 0.80500007 4944837
0.088000007 0.12200001 0.80500007 5141703
0.091000006 0.12200001 0.80500007 5141701
0.094000004 0.12200001 0.80500007 5207237
0.097000003 0.12200001 0.80500007 5207236
0.101 0.12200001 0.80600005 5207749
0.104 0.12200001 0.80600005 5470921
0.10700001 0.12200001 0.80600005 5404615
0.11100001 0.12200001 0.80700004 5535945
0.11400001 0.12200001 0.80600005 5733068
0.11700001 0.12200001 0.80700004 5601995
0.12100001 0.12200001 0.80700004 5733581
0.12400001 0.12200001 0.80800003 5799373
0.127 0.123 0.80800003 5733580
0.13100001 0.123 0.80900002 5733580
0.134 0.123 0.80900002 5799374
0.13800001 0.123 0.81000006 5930446
0.141 0.123 0.81100005 6127825
0.14500001 0.123 0.81200004 6325204
0.148 0.12400001 0.81300002 6457044
0.15200001 0.12400001 0.81400001 6851800
0.155 0.12400001 0.81600004 7180763
0.15900001 0.12400001 0.81700003 7838688
0.163 0.125 0.81800002 8233186
0.16600001 0.125 0.82000005 9022181
0.17 0.125 0.82200003 9811442
0.17400001 0.126 0.82400006 10797563
0.178 0.126 0.82600003 11454975
0.18200001 0.127 0.82800007 11520767
0.186 0.127 0.83000004 11651839
0.19000001 0.127 0.83300006 11652351
0.19400001 0.12800001 0.83500004 11586298
0.19800001 0.12800001 0.83800006 11257596
0.20300001 0.12900001 0.84200007 10335727
0.20700002 0.13000001 0.84600002 9021924
0.21200001 0.13000001 0.85000002 7575772
0.21600001 0.13100001 0.85400003 6588112
0.22100002 0.132 0.85900003 6323911
0.22600001 0.133 0.86200005 6060736
0.65900004 0.36400002 2.3600001 4934224
0.671 0.36500001 2.3660002 4934226
0.68300003 0.36700001 2.3720002 4934224
0.69500005 0.36800003 2.3800001 5066324
0.70600003 0.36900002 2.381 4671565
0.71600002 0.36900002 2.381 4342600
0.72600001 0.36900002 2.3790002 3815743
0.73500001 0.36800003 2.375 3552570
0.74400002 0.36800003 2.368 3815742
0.75200003 0.36700001 2.3620002 3816256
0.76100004 0.36700001 2.3560002 5526874
0.77300006 0.34600002 2.2110002 3815485
0.78000003 0.34500003 2.2020001 3881536
0.78700006 0.34400001 2.1950002 4474959
0.79500002 0.34400001 2.1900001 5266022
0.80600005 0.34400001 2.1920002 5464942
1.1950001 0.38700002 2.3820002 3224375
1.197 0.38500002 2.3630002 2502452
1.2 0.38200003 2.345 8094349
1.207 0.38100001 2.3360002 9474979
1.2140001 0.38000003 2.3270001 9080220
1.2240001 0.38000003 2.3230002 8816021
1.2310001 0.37900001 2.3130002 8618642
1.2370001 0.37800002 2.302 9605537
1.253 0.36800003 2.223 9276831
1.286 0.37500003 2.26 8158609
1.3130001 0.38000003 2.2870002 9144729
1.325 0.38000003 2.2850001 9736611
1.34 0.38200003 2.2900002 10725817
1.3510001 0.38200003 2.2880001 9343394
1.3640001 0.38300002 2.289 8421781
1.3740001 0.38300002 2.2850001 9539745
1.3790001 0.38100001 2.2720001 9605539
1.3800001 0.37900001 2.253 8092300
1.3770001 0.37500003 2.2280002 8553365
1.3790001 0.37300003 2.2110002 8092816
-1.728 0.48400003 2.7950001 7104363
-1.715 0.48400003 2.8000002 6907754
-1.7 0.48300001 2.8010001 6907497
-1.6860001 0.48200002 2.8030002 7104363
-1.6710001 0.48200002 2.8040001 7038570
-1.6570001 0.48100004 2.8060002 7104363
-1.6430001 0.48100004 2.809 7104363
-1.6300001 0.48100004 2.812 7170156
-1.6160001 0.48000002 2.8140001 7104363
-1.6020001 0.48000002 2.8170002 7301742
-1.5880001 0.47900003 2.8180001 7170156
-1.5740001 0.47900003 2.8200002 7301742
-1.5610001 0.47800002 2.8230002 7301742
-1.5460001 0.47800002 2.8240001 7235949
-1.5330001 0.47700003 2.8260002 7367790
-1.5180001 0.47700003 2.8260002 7301996
-1.5000001 0.47500002 2.8200002 7105133
-1.4820001 0.47300002 2.8130002 1973280
-1.033 0.33500001 2 2104614
-1.024 0.33500001 2.003 7368307
-1.0270001 0.33900002 2.029 7433329
-0.98200005 0.333 1.9990001 1908005
-0.96700007 0.33000001 1.988 1974052
-0.95300007 0.32900003 1.9810001 2039589
-0.94000006 0.32700002 1.9740001 1974052
-0.92800003 0.32600001 1.9690001 2105897
-0.91700006 0.32500002 1.9670001 2171433
-0.90900004 0.32500002 1.9690001 2236970
-0.89700001 0.324 1.9640001 2171177
-0.89000005 0.324 1.9690001 2106154
-0.88200003 0.32500002 1.973 2106154
-0.87400001 0.32500002 1.9770001 2237740
-0.86900002 0.32600001 1.9870001 2303017
-0.86400002 0.32700002 1.9980001 2302763
-0.85700005 0.32800001 2.003 2434349
-0.84900004 0.32800001 2.006 2303532
-0.84400004 0.33000001 2.0180001 2369326
-0.83800006 0.33100003 2.0270002 2435119
-0.83200002 0.33200002 2.0350001 2369326
-0.82300001 0.33100003 2.036 2303535
-0.81700003 0.33200002 2.0440001 2566707
-0.80900002 0.33200002 2.0480001 2434864
-0.80200005 0.333 2.056 2369072
-0.79300004 0.333 2.0570002 2303535
-0.78400004 0.333 2.0580001 2303535
-0.77200001 0.33200002 2.052 2369327
-0.76700002 0.333 2.062 2434351
-0.75800002 0.333 2.0640001 2368558
-0.75000006 0.333 2.0670002 2434349
-0.74000001 0.333 2.066 2369327
-0.73200005 0.333 2.069 2435121
-0.72200006 0.33200002 2.0680001 2500914
-0.71300006 0.33200002 2.069 2435121
-0.70500004 0.33200002 2.0710001 2435119
-0.69700003 0.33200002 2.075 2500912
-0.69000006 0.333 2.082 2500912
-0.67900002 0.33200002 2.0780001 2369326
-0.66800004 0.33100003 2.072 2434351
-0.65600002 0.32900003 2.0640001 2434351
-0.64400005 0.32700002 2.0530002 2302765
-0.63300002 0.32700002 2.049 2368558
-0.625 0.32600001 2.049 2565937
-0.61700004 0.32700002 2.0550001 2171179
-0.60800004 0.32700002 2.0550001 2236972
-0.59900004 0.32600001 2.0540001 2105643
-0.59100002 0.32600001 2.0550001 2171436
-0.58200002 0.32600001 2.0570002 2171179
-0.574 0.32600001 2.0580001 2368045
-0.56600004 0.32700002 2.0630002 2171179
-0.55800003 0.32700002 2.0670002 2171179
-0.551 0.32800001 2.0730002 1973541
-0.54400003 0.32900003 2.082 2236711
-0.53800005 0.33000001 2.092 8945533
-0.53300005 0.333 2.108 3485741
-0.52900004 0.33500001 2.1260002 1840672
-0.062000003 0.134 0.86800003 6587322
-0.059000004 0.134 0.86400002 6456510
-0.055000003 0.133 0.85800004 5798844
-0.051000003 0.132 0.85400003 5403576
-0.047000002 0.132 0.85100001 5469371
-0.044000003 0.13100001 0.84700006 5534908
-0.040000003 0.13000001 0.84300005 5469629
-0.037 0.13000001 0.84000003 5338043
-0.033 0.12900001 0.83700001 5206716
-0.030000001 0.12900001 0.83300006 5075387
-0.026000001 0.12800001 0.83000004 5206972
-0.023000002 0.12800001 0.82800007 5206716
-0.020000001 0.12800001 0.82600003 4943802
-0.016000001 0.127 0.82400006 4944574
-0.013 0.127 0.82200003 5009855
-0.010000001 0.127 0.82100004 5141696
-0.0060000001 0.127 0.81900007 5207489
-0.003 0.126 0.81700003 5207488
0 0.126 0.81500006 5075902
0.0040000002 0.126 0.81400001 5076161
0.0070000002 0.126 0.81300002 5141956
0.010000001 0.125 0.81100005 5207236
0.013 0.125 0.81000006 5273029
0.016000001 0.125 0.80900002 5141444
0.020000001 0.125 0.80800003 5141956
0.023000002 0.125 0.80700004 5207494
0.026000001 0.125 0.80600005 5141703
0.029000001 0.125 0.80600005 5075910
0.032000002 0.12400001 0.80500007 5075652
0.036000002 0.12400001 0.80500007 5207238
0.039000001 0.12400001 0.80400002 5141703
0.042000003 0.12400001 0.80400002 5207496
0.045000002 0.12400001 0.80300003 5273288
0.048 0.12400001 0.80200005 5338568
0.052000001 0.12400001 0.80200005 5207495
0.055000003 0.12400001 0.80100006 5141447
0.058000002 0.12400001 0.80100006 5141703
0.061000004 0.12400001 0.80000001 5141703
0.064000003 0.12400001 0.80000001 5207496
0.068000004 0.12400001 0.79900002 4944324
0.071000002 0.12400001 0.79900002 5141444
0.074000001 0.12400001 0.79900002 5207495
0.077000007 0.12400001 0.79900002 5075910
0.080000006 0.12400001 0.79900002 5010117
0.084000006 0.12400001 0.79900002 5141703
0.087000005 0.12400001 0.79900002 5272776
0.090000004 0.12400001 0.79900002 5338569
0.093000002 0.12400001 0.79900002 5470155
0.097000003 0.12400001 0.79900002 5338569
0.1 0.12400001 0.80000001 5404362
0.10300001 0.12400001 0.80000001 5601741
0.10600001 0.12400001 0.80000001 5667534
0.11000001 0.12400001 0.80000001 5601741
0.11300001 0.12400001 0.80000001 5470411
0.116 0.125 0.80100006 5667534
0.12 0.125 0.80100006 5733327
0.123 0.125 0.80200005 5602252
0.126 0.125 0.80200005 5668045
0.13000001 0.125 0.80400002 5602252
0.133 0.125 0.80400002 5865167
0.13700001 0.126 0.80500007 5996753
0.14 0.126 0.80500007 6062546
0.14400001 0.126 0.80600005 6325205
0.147 0.126 0.80700004 6523095
0.15100001 0.126 0.80800003 6720983
0.15400001 0.127 0.81000006 6984409
0.15800001 0.127 0.81100005 7509981
0.16100001 0.127 0.81200004 8101600
0.16500001 0.127 0.81300002 8430563
0.16900001 0.12800001 0.81500006 9088233
0.17300001 0.12800001 0.81700003 9810929
0.177 0.12800001 0.81900007 10337013
0.18100001 0.12900001 0.82200003 11389182
0.185 0.12900001 0.82400006 11192060
0.18900001 0.13000001 0.82700002 11389436
0.193 0.13000001 0.82900006 11652862
0.19700001 0.13100001 0.83200002 11257597
0.20100001 0.132 0.83600003 9744366
0.20600002 0.132 0.84000003 8232161
0.21000001 0.133 0.84400004 6654418
