# .PCD v0.7 - Point Cloud Data file format
VERSION 0.7
FIELDS x y z rgb
SIZE 4 4 4 4
TYPE F F F U
COUNT 1 1 1 1
WIDTH 1277
HEIGHT 1
VIEWPOINT 0 0 0 1 0 0 0
POINTS 1277
DATA ascii
-1.4640001 0.25 2.7980001 4144707
-1.4460001 0.24900001 2.7910001 7565687
-1.432 0.24800001 2.7920001 7565944
-1.4180001 0.24800001 2.7920001 8750221
-1.4120001 0.24900001 2.8080001 9407898
-1.4100001 0.25100002 2.832 9473949
-1.4070001 0.252 2.8540001 9407899
-1.4100001 0.25500003 2.8900001 9407899
-1.4170001 0.259 2.9340003 9407899
-1.4250001 0.26200002 2.9800003 9342363
-0.17300001 0.163 1.9770001 5198424
-0.163 0.16100001 1.955 4934737
-0.155 0.16100001 1.955 4342857
-0.147 0.16100001 1.9530001 3355447
-0.13900001 0.16000001 1.9530001 3684669
-0.132 0.16000001 1.9520001 5328982
-0.12400001 0.16000001 1.9510001 4868431
-0.116 0.16000001 1.9510001 4144708
-0.108 0.16000001 1.9520001 4473675
-0.1 0.16000001 1.9460001 4210502
-0.091000006 0.15800001 1.927 4671054
-0.083000004 0.15700001 1.909 4868431
-0.075000003 0.156 1.899 3552571
-0.067000002 0.156 1.9000001 3618370
-0.060000002 0.156 1.9060001 3881538
-0.053000003 0.15700001 1.9110001 8093583
-0.045000002 0.15800001 1.9210001 10264762
-0.038000003 0.15700001 1.9180001 11976150
-0.030000001 0.156 1.9020001 11975892
-0.022000002 0.15300001 1.8690001 13686257
-0.0080000004 0.088000007 1.0700001 11779540
-0.0040000002 0.087000005 1.0600001 11383494
0 0.087000005 1.0550001 12633563
0.0040000002 0.085000001 1.039 12830175
0.0090000005 0.085000001 1.039 15659517
0.067000002 0.077000007 0.93100005 11188183
0.07 0.076000005 0.92700005 10925271
0.075000003 0.077000007 0.93100005 11846365
0.079000004 0.077000007 0.93800002 4738911
0.13800001 0.086000003 1.0420001 5856621
0.14300001 0.086000003 1.046 8094355
0.147 0.087000005 1.0480001 8489370
0.15200001 0.087000005 1.049 6712184
0.156 0.087000005 1.051 4670798
0.30100003 0.15900001 1.9190001 3816516
0.31500003 0.162 1.9620001 3553345
0.324 0.163 1.9680001 3422015
0.333 0.163 1.9720001 3356222
0.34200001 0.164 1.9750001 3422271
0.35000002 0.164 1.973 3225148
0.35800001 0.164 1.973 3224891
0.36600003 0.164 1.973 3159098
0.37400001 0.164 1.973 3159355
0.38200003 0.164 1.9710001 3159355
0.39000002 0.164 1.9740001 3159355
0.39700001 0.163 1.9660001 3158842
0.40600002 0.164 1.9690001 3093562
0.41500002 0.164 1.9760001 3093560
0.42300001 0.164 1.973 3093560
0.43100002 0.164 1.9720001 3224633
0.43900001 0.164 1.9720001 2764595
0.44800001 0.16500001 1.973 3027510
0.45600003 0.16500001 1.9750001 2961461
0.46600002 0.16600001 1.983 3158840
0.47500002 0.16600001 1.9820001 3422013
0.48300001 0.16600001 1.9820001 3487807
0.49400002 0.16700001 1.9910001 3552830
0.50100005 0.16600001 1.9860001 3552829
0.509 0.16600001 1.9840001 3619137
0.51800001 0.16700001 1.9860001 3685443
0.52600002 0.16700001 1.988 3751238
0.53500003 0.16700001 1.9870001 4014152
0.54100001 0.16600001 1.9800001 3948874
0.55300003 0.16700001 1.9900001 4146509
0.56300002 0.16800001 1.9970001 4146508
0.57000005 0.16800001 1.9910001 4212815
0.58000004 0.16800001 1.9950001 4474961
0.58600003 0.16800001 1.988 4278352
0.59600002 0.16800001 1.9930001 4474963
0.60500002 0.16800001 1.9930001 4409938
0.61500001 0.16900001 1.9960001 4542039
0.62300003 0.16900001 1.9950001 4344660
0.63100004 0.16900001 1.9930001 4344145
0.64200002 0.17 1.9990001 4212559
0.64900005 0.16900001 1.9940001 4147023
0.65800005 0.16900001 1.9940001 4015437
0.67000002 0.17 2.003 3949902
0.67800003 0.17 2.0020001 3884111
0.68800002 0.171 2.0050001 4080975
0.69700003 0.171 2.006 4015438
0.70700002 0.171 2.0080001 4344659
0.71800005 0.17200001 2.013 4738904
0.72700006 0.17200001 2.013 4870235
0.73700005 0.17300001 2.016 5462629
0.74600005 0.17300001 2.0140002 5856873
0.75200003 0.17200001 2.0080001 5989485
0.75600004 0.171 1.9930001 6515573
0.75500005 0.16900001 1.9680001 7107194
1.0020001 0.21700001 2.5210001 4605260
1.01 0.21700001 2.5100002 2499883
1.021 0.21700001 2.5080001 2236710
1.031 0.21700001 2.506 3552570
1.044 0.21700001 2.5080001 3749948
1.056 0.21800001 2.5090001 5394516
1.069 0.21800001 2.5120001 5329234
1.079 0.21800001 2.5070002 4604734
1.3260001 0.25800002 2.95 1315349
1.337 0.25500003 2.9130001 1052179
1.3360001 0.25300002 2.8790002 1250075
1.3360001 0.25 2.8490002 3684927
1.3430001 0.24900001 2.8340001 1182996
1.3490001 0.24800001 2.8190002 1643550
1.3610001 0.24800001 2.8140001 4539984
1.3740001 0.24800001 2.812 3421762
1.6100001 0.26500002 2.9570003 6119786
1.628 0.266 2.9630001 6382958
1.6380001 0.266 2.9520001 8685459
1.6500001 0.266 2.9450002 3355966
1.6610001 0.26500002 2.9380002 1250075
1.6720001 0.26500002 2.9290001 1315609
1.682 0.264 2.9190001 2830387
1.6930001 0.264 2.9110003 4473670
1.7040001 0.264 2.9030001 5131088
1.7190001 0.264 2.9020002 4801865
1.7360001 0.26500002 2.9050002 4604742
1.7570001 0.266 2.9130001 3815996
1.7770001 0.26700002 2.9190001 4473413
1.7970001 0.26800001 2.9260001 4144448
1.8150001 0.26900002 2.9290001 4078653
1.8310001 0.26900002 2.9280002 3947580
1.8410001 0.26900002 2.9170001 3815994
1.8330001 0.266 2.8790002 3882040
1.8180001 0.26200002 2.8300002 4013632
1.6370001 0.22800002 2.4380002 1512730
1.6470001 0.22800002 2.4330001 1052947
-1.8420001 0.26900002 2.7450001 6776428
-1.8320001 0.26900002 2.7540002 6907756
-1.8180001 0.26900002 2.7570002 6908013
-1.8040001 0.26900002 2.7600002 6973549
-1.789 0.26900002 2.7620001 6841708
-1.7750001 0.26800001 2.7640002 3091762
-1.7600001 0.26800001 2.7650001 6644584
-1.7460001 0.26800001 2.7680001 6841708
-1.7300001 0.26700002 2.7680001 6973294
-1.7160001 0.26700002 2.7700002 7039086
-1.7030001 0.26700002 2.7730002 7170928
-1.6900001 0.26700002 2.7770002 7170928
-1.6750001 0.266 2.779 7039342
-1.6610001 0.266 2.7800002 7171184
-1.646 0.266 2.7810001 7105135
-1.6320001 0.26500002 2.7830002 7236721
-1.618 0.26500002 2.7850001 7236721
-1.605 0.26500002 2.7880001 7302514
-1.5920001 0.26500002 2.7910001 7302771
-1.5780001 0.26500002 2.7930002 7236978
-1.5650001 0.264 2.7950001 7302514
-1.5510001 0.264 2.7970002 7302514
-1.5370001 0.264 2.799 7434100
-1.524 0.264 2.8010001 7499893
-1.5100001 0.26300001 2.8030002 7499892
-1.4970001 0.26300001 2.8050001 7105646
-1.4820001 0.26300001 2.8050001 2039844
-1.4680001 0.26200002 2.8040001 3486777
-1.4530001 0.26200002 2.8030002 7499894
-1.4380001 0.26100001 2.802 7368307
-1.4250001 0.26100001 2.8050001 8684173
-1.4170001 0.26200002 2.8170002 9473692
-1.4120001 0.26300001 2.835 9342618
-1.4070001 0.26500002 2.8530002 9473692
-1.4100001 0.26800001 2.8890002 9407899
-1.4170001 0.27100003 2.9320002 9342106
-1.424 0.27500001 2.9780002 9276313
-0.171 0.16900001 1.96 5131862
-0.163 0.16800001 1.9540001 5000531
-0.155 0.16900001 1.955 4276551
-0.147 0.16800001 1.9540001 3355704
-0.14 0.16800001 1.955 3815742
-0.132 0.16900001 1.9560001 5131603
-0.12400001 0.16800001 1.9560001 4671052
-0.116 0.16800001 1.9560001 3947330
-0.109 0.16900001 1.9580001 4013123
-0.091000006 0.16500001 1.9180001 4539467
-0.082000002 0.163 1.8970001 4539467
-0.074000001 0.162 1.886 4013121
-0.067000002 0.162 1.8830001 3881279
-0.059000004 0.162 1.886 4144708
-0.052000001 0.163 1.8900001 6710896
-0.045000002 0.163 1.8960001 9145762
-0.037 0.163 1.891 9672875
-0.029000001 0.162 1.8820001 11975891
-0.0080000004 0.092000008 1.069 10067891
-0.0040000002 0.091000006 1.0630001 12042195
0 0.091000006 1.0600001 13818098
0.0050000004 0.091000006 1.0580001 13226222
0.0090000005 0.091000006 1.056 14081778
0.013 0.090000004 1.0480001 10791870
0.017000001 0.091000006 1.0530001 4672607
0.052000001 0.15800001 1.8390001 4080983
0.059000004 0.15800001 1.8380001 5265258
0.059000004 0.084000006 0.98000002 5659248
0.061000004 0.083000004 0.95800006 5528437
0.063000001 0.080000006 0.93300003 12832489
0.067000002 0.080000006 0.92600006 12438504
0.07 0.079000004 0.92100006 12109798
0.074000001 0.080000006 0.92300004 12175332
0.078000002 0.080000006 0.92900002 7699349
0.14300001 0.091000006 1.049 9607593
0.147 0.091000006 1.049 9212324
0.15200001 0.091000006 1.0500001 6514295
0.156 0.091000006 1.051 3356225
0.30900002 0.16700001 1.9230001 4541011
0.31900001 0.16800001 1.9340001 4672597
0.32700002 0.16800001 1.9360001 4672600
0.33500001 0.16800001 1.937 4804183
0.34300002 0.16800001 1.937 4869977
0.35100001 0.16800001 1.9360001 4870233
0.35900003 0.16800001 1.9360001 5198685
0.36800003 0.16900001 1.9400001 5198428
0.37500003 0.16900001 1.9350001 5067356
0.38300002 0.16900001 1.9360001 4936027
0.39200002 0.16900001 1.9410001 4738904
0.40000001 0.16900001 1.9400001 5001821
0.40800002 0.17 1.9430001 4739163
0.41600001 0.17 1.9410001 4608090
0.42500001 0.17 1.9460001 4673884
0.43400002 0.17 1.9480001 4607576
0.44200003 0.17 1.9460001 4607577
0.45000002 0.17 1.9460001 4279125
0.45900002 0.171 1.95 4015953
0.46900001 0.17200001 1.9590001 4213332
0.47800002 0.17200001 1.9620001 3950160
0.48600003 0.17200001 1.9590001 3884368
0.49400002 0.17200001 1.9590001 3752784
0.50400001 0.17300001 1.9660001 3818577
0.51200002 0.17300001 1.9630001 4015956
0.52000004 0.17300001 1.9630001 4147542
0.52900004 0.17300001 1.9640001 4476507
0.537 0.17300001 1.9630001 4673375
0.54500002 0.17300001 1.9630001 5134441
0.55400002 0.17300001 1.9640001 5266026
0.56200004 0.17300001 1.9630001 5727091
0.56900001 0.17300001 1.9590001 5923697
0.57900006 0.17400001 1.9620001 6121333
0.58900005 0.17400001 1.9690001 6252662
0.59600002 0.17400001 1.9640001 6186872
0.60700005 0.17500001 1.9720001 6648192
0.61500001 0.17500001 1.9680001 6977156
0.62300003 0.17500001 1.9660001 7964051
0.63200003 0.17500001 1.9670001 8950944
0.64300001 0.17600001 1.9750001 9542052
0.65200001 0.17600001 1.9770001 10397620
0.66300005 0.177 1.9820001 10726842
0.67300004 0.177 1.9860001 10595001
0.68300003 0.178 1.9900001 10332083
0.69300002 0.178 1.9920001 10002605
0.70200002 0.178 1.9940001 9410466
0.71300006 0.17900001 2 9081501
0.72300005 0.17900001 2.0010002 8620950
0.73200005 0.18000001 2.0010002 8028300
0.73900002 0.17900001 1.9950001 7436419
0.74300003 0.178 1.9820001 7238783
0.75000006 0.178 1.978 7106682
1.0040001 0.22800002 2.5240002 5460567
1.011 0.22700001 2.5120001 6117984
1.021 0.22700001 2.5090001 4407879
1.0320001 0.22700001 2.506 1315863
1.0450001 0.22800002 2.5090001 5460308
1.057 0.22800002 2.5110002 5459796
1.0700001 0.22900002 2.513 5064778
1.327 0.26500002 2.8890002 1116685
1.3280001 0.26300001 2.8610001 854543
1.3330001 0.26200002 2.8430002 723210
1.345 0.26200002 2.8380001 1051410
1.3540001 0.26100001 2.8280001 1578780
1.3660001 0.26100001 2.8240001 1842209
1.378 0.26100001 2.8210001 4145996
1.6100001 0.27800003 2.9560001 4803668
1.6320001 0.28 2.9690001 3948359
1.641 0.27900001 2.9570003 4079944
1.6520001 0.27900001 2.9490001 3816772
1.6630001 0.27900001 2.9410002 4210760
1.6730001 0.27800003 2.9300001 3816770
1.6810001 0.27700001 2.9170001 3882562
1.6910001 0.27700001 2.9070001 4277575
1.702 0.27600002 2.8990002 4934479
1.7170001 0.27700001 2.8980002 4408392
1.7360001 0.27800003 2.9030001 4145220
1.756 0.27900001 2.9100001 4078914
1.7770001 0.28 2.9180002 4407620
1.7970001 0.28100002 2.9250002 4012862
1.8160001 0.28200001 2.9290001 4012862
1.8320001 0.28300002 2.9290001 3881789
1.8440001 0.28300002 2.9220002 3750201
1.8360001 0.27900001 2.8830001 3816506
1.8140001 0.27400002 2.8240001 4144444
1.6400001 0.23900001 2.4420002 1250328
-1.8430001 0.28200001 2.7460001 2894382
-1.835 0.28200001 2.7570002 6907756
-1.8200001 0.28200001 2.7600002 6973548
-1.8060001 0.28200001 2.7630002 7039342
-1.7920001 0.28100002 2.7650001 3354933
-1.7770001 0.28100002 2.7670002 5657433
-1.7620001 0.28100002 2.7670002 7039087
-1.7460001 0.28 2.7680001 6973294
-1.7320001 0.28 2.7690001 7039342
-1.7170001 0.27900001 2.7700002 7039342
-1.7040001 0.27900001 2.7740002 7170928
-1.6890001 0.27900001 2.776 7170928
-1.6750001 0.27900001 2.7780001 7236721
-1.6610001 0.27800003 2.7800002 7302514
-1.6470001 0.27800003 2.7820001 7302514
-1.6330001 0.27800003 2.7840002 7368307
-1.6190001 0.27800003 2.786 7236721
-1.6070001 0.27800003 2.7900002 7302512
-1.5940001 0.27700001 2.7930002 7368305
-1.58 0.27700001 2.7960002 7302514
-1.567 0.27700001 2.7980001 7368307
-1.5530001 0.27700001 2.8000002 7368307
-1.539 0.27600002 2.8010001 7368307
-1.5250001 0.27600002 2.8030002 7434356
-1.5120001 0.27600002 2.8050001 7434611
-1.498 0.27600002 2.8060002 7303025
-1.4840001 0.27500001 2.8070002 1974560
-1.47 0.27500001 2.8070002 2829107
-1.455 0.27400002 2.8070002 7565433
-1.4400001 0.27400002 2.8060002 7368308
-1.4280001 0.27400002 2.809 8355207
-1.419 0.27400002 2.8190002 9473692
-1.4130001 0.27600002 2.8360002 9342618
-1.409 0.27700001 2.8560002 9342106
-1.4120001 0.28 2.891 9210520
-1.4170001 0.28400001 2.9330001 9342106
-1.4250001 0.28800002 2.9780002 9276313
-0.17200001 0.177 1.9660001 5001044
-0.163 0.17600001 1.955 4606029
-0.155 0.17600001 1.9560001 3947587
-0.148 0.17600001 1.9560001 3552830
-0.14 0.177 1.9580001 2565935
-0.132 0.177 1.9620001 3684671
-0.125 0.178 1.9700001 3618622
-0.11700001 0.178 1.973 3355706
-0.082000002 0.171 1.8940001 4539978
-0.074000001 0.16800001 1.863 3553083
-0.066 0.16700001 1.8590001 3750464
-0.059000004 0.16700001 1.8570001 3487040
-0.051000003 0.16700001 1.8590001 3816256
-0.044000003 0.16800001 1.8620001 9276830
-0.036000002 0.16700001 1.8570001 8422814
-0.029000001 0.16600001 1.8490001 7633550
-0.0080000004 0.096000001 1.0680001 8883362
-0.0040000002 0.096000001 1.0630001 8883362
0 0.096000001 1.062 7896468
0.0050000004 0.096000001 1.0610001 9343653
0.0090000005 0.095000006 1.0600001 7501198
0.013 0.096000001 1.0610001 9804207
0.037 0.164 1.8240001 9476007
0.052000001 0.16500001 1.8370001 8028562
0.059000004 0.16600001 1.8420001 8225686
0.067000002 0.16600001 1.8410001 8095637
0.059000004 0.088000007 0.97400004 8489376
0.061000004 0.086000003 0.95100003 11253458
0.063000001 0.084000006 0.92700005 13885951
0.066 0.083000004 0.92200005 13754879
0.07 0.083000004 0.91800004 13361151
0.074000001 0.083000004 0.91900003 13557244
0.078000002 0.083000004 0.92400002 12174816
0.083000004 0.085000001 0.94000006 5725298
0.14300001 0.095000006 1.0470001 8883872
0.147 0.095000006 1.0480001 9541292
0.15200001 0.095000006 1.0480001 7238789
0.156 0.095000006 1.049 5264479
0.30500001 0.17200001 1.8940001 3950679
0.31400001 0.17300001 1.9020001 4345437
0.32200003 0.17300001 1.9050001 4674658
0.33100003 0.17400001 1.9100001 4937832
0.33800003 0.17300001 1.9060001 5135211
0.34600002 0.17400001 1.9070001 5463406
0.35300002 0.17300001 1.9030001 5857908
0.36200002 0.17400001 1.909 5858935
0.37 0.17400001 1.909 6253692
0.37800002 0.17400001 1.9110001 6319485
0.38700002 0.17500001 1.914 6779523
0.39500001 0.17500001 1.9170001 6780549
0.40300003 0.17500001 1.9170001 6912135
0.41100001 0.17500001 1.9190001 7306380
0.41900003 0.17500001 1.9190001 7569552
0.42700002 0.17500001 1.9180001 7635347
0.43500003 0.17500001 1.9150001 8030104
0.44400004 0.17600001 1.9200001 8359068
0.45300001 0.17600001 1.9250001 8424604
0.46200001 0.177 1.927 8818850
0.47100002 0.177 1.9310001 9213351
0.48100004 0.178 1.9380001 9870768
0.48900002 0.178 1.937 10199732
0.49700001 0.178 1.9390001 10331319
0.505 0.178 1.9380001 10397111
0.51300001 0.17900001 1.9380001 10265782
0.523 0.17900001 1.9410001 9936817
0.53100002 0.17900001 1.9410001 9476008
0.53900003 0.17900001 1.9420002 9147042
0.546 0.17900001 1.937 8620700
0.55600005 0.17900001 1.9400001 8225940
0.56400001 0.18000001 1.9410001 7764878
0.57200003 0.17900001 1.9380001 7501706
0.71600002 0.18800001 2.0070002 3948618
0.99800003 0.24000001 2.5380001 4605260
1.003 0.23900001 2.5220001 4407624
1.0120001 0.23800001 2.5150001 4868175
1.0220001 0.23800001 2.5110002 2631468
1.033 0.23800001 2.5090001 2697261
1.0450001 0.23900001 2.5100002 5328211
1.0580001 0.23900001 2.513 5131086
1.0710001 0.24000001 2.5150001 5131341
1.0990001 0.24100001 2.5240002 10654581
1.3340001 0.27400002 2.8430002 1907223
1.3470001 0.27400002 2.8420002 1183757
1.3540001 0.273 2.8280001 2105120
1.3710001 0.27200001 2.8040001 1380626
1.6350001 0.29300001 2.9740002 4276806
1.6440001 0.29300001 2.9610002 4211014
1.6550001 0.29200003 2.9530001 4539979
1.664 0.29200003 2.9420002 4407880
1.6710001 0.29000002 2.9260001 4342601
1.677 0.289 2.9090002 4473673
1.6850001 0.28800002 2.8960001 4539465
1.6980001 0.289 2.8920002 4999504
1.7170001 0.29000002 2.8980002 4538953
1.7390001 0.29100001 2.9080002 4275781
1.7580001 0.29200003 2.9130001 4342341
1.7770001 0.29300001 2.9180002 4210243
1.7960001 0.294 2.9230001 3947071
1.8140001 0.29500002 2.9250002 3881789
1.83 0.29500002 2.9250002 3881789
1.845 0.296 2.9220002 3553081
1.84 0.29300001 2.8890002 3881535
1.6440001 0.25100002 2.447 1447195
-1.8340001 0.29500002 2.756 2565415
-1.8200001 0.29500002 2.7590001 2829100
-1.807 0.294 2.7630002 4473924
-1.7930001 0.294 2.766 6117985
-1.7780001 0.294 2.7680001 6841708
-1.7630001 0.29300001 2.7690001 6907501
-1.748 0.29300001 2.7700002 6973549
-1.733 0.29200003 2.7710001 7105135
-1.7180001 0.29200003 2.7720001 7105135
-1.7040001 0.29200003 2.7740002 7105135
-1.6910001 0.29200003 2.7780001 7236719
-1.6780001 0.29100001 2.7810001 7236721
-1.6630001 0.29100001 2.7820001 7105135
-1.6480001 0.29100001 2.7830002 7236721
-1.6350001 0.29000002 2.786 7302514
-1.6210001 0.29000002 2.7880001 7236721
-1.608 0.29000002 2.7910001 7302512
-1.5940001 0.29000002 2.7930002 7368305
-1.5810001 0.29000002 2.7960002 7302514
-1.5680001 0.289 2.799 7368307
-1.554 0.289 2.8010001 7434100
-1.5400001 0.289 2.802 7499893
-1.526 0.289 2.8040001 7434099
-1.5130001 0.28800002 2.8060002 7434098
-1.498 0.28800002 2.8060002 7434354
-1.485 0.28800002 2.809 2105632
-1.4710001 0.287 2.809 2894386
-1.457 0.287 2.8100002 7499640
-1.4410001 0.28600001 2.8070002 7434101
-1.4280001 0.28600001 2.809 8355462
-1.4180001 0.28600001 2.8160002 9407897
-1.4120001 0.28800002 2.8340001 9342363
-1.4080001 0.289 2.8530002 9342363
-1.411 0.29200003 2.8890002 9276570
-1.416 0.296 2.9300001 9276570
-1.424 0.30000001 2.9760001 9342105
-0.17300001 0.186 1.978 5132115
-0.163 0.18400002 1.9560001 4671565
-0.155 0.18400002 1.9570001 4276807
-0.148 0.185 1.9610001 3289657
-0.141 0.185 1.9670001 2500142
-0.133 0.186 1.9760001 3224119
-0.126 0.18700001 1.9840001 1842466
-0.11800001 0.18700001 1.9890001 3092279
-0.081 0.17600001 1.8690001 4539465
-0.073000006 0.17400001 1.8470001 6250338
-0.065000005 0.17300001 1.84 7040112
-0.058000002 0.17300001 1.8360001 6579562
-0.051000003 0.17300001 1.8360001 6446957
-0.043000001 0.17200001 1.8330001 9936049
-0.036000002 0.17200001 1.83 10135228
-0.028000001 0.17200001 1.825 9213609
-0.0040000002 0.1 1.059 9805232
0 0.1 1.0600001 6844808
0.0050000004 0.1 1.0600001 10660545
0.0090000005 0.1 1.0600001 10594491
0.013 0.1 1.062 10923966
0.044000003 0.17 1.8060001 8357018
0.058000002 0.17 1.8110001 10659773
0.065000005 0.17 1.8090001 8883106
0.060000002 0.088000007 0.93200004 10793160
0.063000001 0.087000005 0.92200005 13754366
0.066 0.086000003 0.91800004 13755134
0.07 0.086000003 0.91500002 13689083
0.073000006 0.086000003 0.91600007 13491197
0.077000007 0.087000005 0.92000002 12109538
0.082000002 0.088000007 0.92900002 5527918
0.14300001 0.099000007 1.0480001 8620958
0.147 0.099000007 1.0480001 10199742
0.15200001 0.099000007 1.0480001 8094106
0.156 0.099000007 1.0470001 6844800
0.29900002 0.17600001 1.8590001 9476266
0.30900002 0.178 1.8750001 9279402
0.31800002 0.178 1.8800001 9082279
0.32700002 0.17900001 1.886 9016486
0.33500001 0.17900001 1.8890001 9082279
0.34300002 0.18000001 1.891 8687521
0.35100001 0.18000001 1.891 8555678
0.35900003 0.18000001 1.8930001 8094614
0.36700001 0.18000001 1.8940001 7700626
0.37600002 0.18100001 1.899 7503245
0.384 0.18100001 1.9000001 7174537
0.39300001 0.18200001 1.9050001 7107721
0.40100002 0.18200001 1.9050001 6910341
0.40900001 0.18200001 1.9050001 6844290
0.41600001 0.18200001 1.9030001 6449788
0.42400002 0.18200001 1.9050001 6252151
0.54200006 0.185 1.9220001 2369847
0.77200001 0.21400002 2.1910002 2171433
0.77700001 0.21300001 2.1780002 2895156
0.78300005 0.21200001 2.1670001 3026486
0.79000002 0.21200001 2.158 3355451
0.98500007 0.25 2.5330002 1052437
0.99400002 0.24900001 2.526 2171174
1.0020001 0.24900001 2.5170002 2039585
1.0120001 0.24900001 2.5140002 3750203
1.0220001 0.24900001 2.5100002 2368297
1.0320001 0.24900001 2.506 5328467
1.044 0.24900001 2.5070002 5394002
1.0600001 0.25 2.5150001 5393742
1.074 0.25100002 2.5210001 8946821
1.0880001 0.252 2.526 9931647
1.105 0.25300002 2.5380001 5721658
1.3360001 0.28400001 2.8180001 10193769
1.3460001 0.28400001 2.809 10062445
1.358 0.28100002 2.7770002 5590583
1.3540001 0.26900002 2.6340001 1381142
1.3670001 0.26900002 2.6340001 1973537
1.3800001 0.26900002 2.6330001 2105124
1.6530001 0.30700001 2.9770002 4473675
1.6620001 0.30600002 2.9640002 4671309
1.6700001 0.30600002 2.9520001 4013122
1.674 0.30400002 2.9310002 4473673
1.677 0.30200002 2.9080002 4539466
1.687 0.30200002 2.8990002 4736334
1.7010001 0.30200002 2.8970001 4867920
1.7210001 0.303 2.9030001 4341574
1.743 0.30500001 2.914 4144195
1.7620001 0.30600002 2.9190001 4210500
1.779 0.30600002 2.9200001 4210243
1.7970001 0.30700001 2.9230001 4144450
1.8140001 0.30800003 2.9250002 3881279
1.83 0.30800003 2.9230001 3815486
1.8440001 0.30900002 2.9200001 3618364
1.8360001 0.30500001 2.881 4012611
-1.8220001 0.30700001 2.7600002 6710375
-1.8080001 0.30700001 2.7630002 6381667
-1.7930001 0.30700001 2.7650001 6513253
-1.779 0.30600002 2.7680001 6973551
-1.7640001 0.30600002 2.7690001 6973294
-1.7490001 0.30500001 2.7700002 6907756
-1.7340001 0.30500001 2.7720001 6973549
-1.72 0.30500001 2.7740002 7039342
-1.705 0.30400002 2.7750001 7039340
-1.692 0.30400002 2.779 7039340
-1.6780001 0.30400002 2.7810001 7105135
-1.664 0.30400002 2.7830002 7170928
-1.649 0.303 2.7840002 7171185
-1.636 0.303 2.7870002 7236721
-1.6220001 0.303 2.789 7105135
-1.608 0.30200002 2.7910001 7236720
-1.595 0.30200002 2.7940001 7236721
-1.5810001 0.30200002 2.7960002 7434100
-1.5680001 0.30200002 2.799 7368307
-1.5550001 0.30100003 2.8010001 7302514
-1.5410001 0.30100003 2.8040001 7434100
-1.5270001 0.30100003 2.8050001 7499893
-1.5140001 0.30100003 2.8070002 7434098
-1.5000001 0.30000001 2.8080001 7368305
-1.4860001 0.30000001 2.8100002 2039583
-1.4720001 0.30000001 2.8100002 3026226
-1.4580001 0.29900002 2.8100002 7368054
-1.4410001 0.29800001 2.8060002 7434100
-1.429 0.29800001 2.809 8157570
-1.4180001 0.29900002 2.8160002 9276312
-1.4130001 0.30000001 2.835 9276572
-1.4070001 0.30100003 2.8520002 9276569
-1.4120001 0.30500001 2.8900001 9276570
-1.419 0.30900002 2.9340003 9342363
-1.4260001 0.31400001 2.9800003 9342106
-0.17200001 0.19400001 1.9700001 5066322
-0.163 0.192 1.9570001 4868431
-0.156 0.193 1.96 4079429
-0.148 0.193 1.9660001 3157817
-0.141 0.19400001 1.9760001 2434094
-0.134 0.19500001 1.9870001 3223608
-0.127 0.19600001 1.9990001 2170919
-0.072000004 0.178 1.8150001 3947331
-0.064000003 0.178 1.8140001 5723484
-0.057000004 0.177 1.8080001 5923697
-0.050000001 0.177 1.8030001 6650259
-0.042000003 0.17600001 1.7990001 8886193
-0.035 0.17600001 1.7950001 10133176
-0.028000001 0.17500001 1.7900001 10266042
-0.0040000002 0.10300001 1.052 9936820
0 0.10300001 1.0550001 12239323
0.0050000004 0.104 1.056 10726084
0.0090000005 0.10300001 1.054 8818339
0.013 0.10300001 1.0550001 10923454
0.062000003 0.090000004 0.91300005 13820155
0.066 0.090000004 0.91300005 13886207
0.069000006 0.089000002 0.91100007 13952254
0.073000006 0.090000004 0.91300005 13754111
0.077000007 0.090000004 0.91700006 12635881
0.081 0.091000006 0.92300004 7962517
0.14300001 0.10300001 1.0470001 10397120
0.147 0.10300001 1.046 13423090
0.15100001 0.10300001 1.0430001 9673659
0.155 0.10300001 1.0420001 7041174
0.294 0.18100001 1.8280001 4409948
0.30500001 0.18300001 1.848 4081238
0.33100003 0.185 1.8690001 3619401
0.34 0.186 1.8730001 3684937
0.34800002 0.186 1.8740001 3948107
0.35600001 0.186 1.8750001 2895932
0.36500001 0.18700001 1.881 1974574
0.70400006 0.24000001 2.3850002 4343114
0.71300006 0.24000001 2.3820002 4080714
0.72300005 0.24000001 2.378 4014663
0.73200005 0.24000001 2.375 4211528
0.74100006 0.24000001 2.3700001 3882563
0.75000006 0.23900001 2.365 3750977
0.75800002 0.23900001 2.358 3421498
0.76700002 0.23900001 2.3530002 6381928
0.77400005 0.22900002 2.253 2894899
0.77000004 0.22500001 2.2120001 5855840
0.77700001 0.22500001 2.204 2829364
0.78000003 0.223 2.184 2829364
0.78500003 0.22200002 2.1720002 3289659
0.79200006 0.22100002 2.164 3553345
0.97400004 0.26000002 2.5340002 986896
0.98300004 0.26000002 2.5280001 3420984
0.99200004 0.26000002 2.5210001 2828590
1.0020001 0.259 2.516 4012864
1.013 0.26000002 2.5150001 2302246
1.024 0.26000002 2.513 2960176
1.0350001 0.26000002 2.5110002 5196364
1.0470001 0.26000002 2.513 5393484
1.064 0.26200002 2.5240002 5065549
1.09 0.26300001 2.5310001 5524545
1.1060001 0.264 2.5380001 2959906
1.1170001 0.264 2.536 10852747
1.125 0.264 2.5270002 11048311
1.3670001 0.28 2.6330001 3092533
1.6600001 0.32200003 2.9880002 4539211
1.664 0.32000002 2.9670002 4407880
1.6710001 0.31900001 2.9520001 4737101
1.6730001 0.317 2.9280002 4342600
1.6750001 0.31500003 2.9050002 4473673
1.6850001 0.31400001 2.8950002 4671308
1.7010001 0.31500003 2.8950002 4671052
1.7190001 0.31600001 2.8990002 4342087
1.7420001 0.317 2.9110003 4144708
1.761 0.31900001 2.9160001 4144708
1.7780001 0.31900001 2.9180002 4078403
1.7990001 0.32100001 2.9250002 3881025
1.8160001 0.32100001 2.927 4012611
1.835 0.32200003 2.9300001 3815232
-1.8220001 0.32000002 2.7600002 6315617
-1.8080001 0.31900001 2.7620001 6644584
-1.794 0.31900001 2.7650001 6908012
-1.7800001 0.31900001 2.7680001 6776426
-1.7650001 0.31800002 2.7700002 6973549
-1.751 0.31800002 2.7720001 6907754
-1.7360001 0.31800002 2.7740002 6907756
-1.7220001 0.317 2.776 6907756
-1.7080001 0.317 2.7780001 6908267
-1.6940001 0.317 2.7810001 6973806
-1.6800001 0.317 2.7830002 6973806
-1.6660001 0.31600001 2.786 7039342
-1.6520001 0.31600001 2.7870002 7039597
-1.6380001 0.31600001 2.7900002 7171182
-1.6240001 0.31500003 2.7910001 7039853
-1.6100001 0.31500003 2.7930002 7302514
-1.5960001 0.31500003 2.7940001 7302514
-1.582 0.31400001 2.7970002 7368307
-1.5690001 0.31400001 2.8000002 7302771
-1.5560001 0.31400001 2.8030002 7302771
-1.544 0.31400001 2.8070002 7368307
-1.529 0.31400001 2.8080001 7368307
-1.516 0.31300002 2.8100002 7368306
-1.501 0.31300002 2.8100002 7303025
-1.488 0.31300002 2.812 2171168
-1.473 0.31200001 2.812 2763054
-1.46 0.31200001 2.8130002 7565431
-1.4430001 0.31100002 2.8080001 7434098
-1.4300001 0.31100002 2.8110001 7960191
-1.419 0.31100002 2.8180001 9539225
-1.4150001 0.31300002 2.8370001 9407899
-1.409 0.31400001 2.855 9473436
-1.4120001 0.317 2.8890002 9276312
-1.4170001 0.32100001 2.9290001 9342105
-1.4250001 0.32600001 2.9770002 9276312
-0.17200001 0.20100001 1.9660001 5132115
-0.163 0.2 1.9580001 4803150
-0.156 0.20100001 1.9620001 4276551
-0.149 0.20100001 1.9700001 3289912
-0.142 0.20300001 1.9820001 3223865
-0.134 0.20400001 1.9930001 3223865
-0.127 0.20500001 2.0020001 2039593
-0.119 0.20500001 2.0040002 3092283
-0.049000002 0.18100001 1.7700001 7440048
-0.042000003 0.18000001 1.766 7505066
-0.034000002 0.18000001 1.7600001 8622257
-0.0080000004 0.10300001 1.013 8819635
-0.0040000002 0.104 1.0220001 9345464
0 0.105 1.0320001 10859469
0.0040000002 0.10600001 1.0400001 8884912
0.0090000005 0.10600001 1.039 12963044
0.013 0.105 1.0320001 16383743
0.017000001 0.105 1.029 16251390
0.057000004 0.092000008 0.89600003 10266303
0.061000004 0.092000008 0.90000004 14083578
0.065000005 0.092000008 0.90300006 14411775
0.069000006 0.093000002 0.90600002 14280191
0.073000006 0.093000002 0.90800005 13820155
0.077000007 0.093000002 0.91200006 12569577
0.081 0.094000004 0.91700006 9148076
0.13700001 0.10600001 1.036 8687535
0.14300001 0.10700001 1.0450001 7503004
0.14600001 0.10700001 1.039 11054808
0.148 0.105 1.026 8423608
0.15100001 0.104 1.0120001 7832501
0.15100001 0.101 0.98700005 7570356
0.15300001 0.101 0.97800004 6385822
0.15700001 0.101 0.97800004 4609148
0.54400003 0.273 2.6370001 1382182
0.55600005 0.273 2.6400001 1250596
0.565 0.273 2.6340001 1513768
0.53200001 0.24300002 2.342 5724000
0.54000002 0.24200001 2.3330002 4868430
0.54800004 0.24200001 2.3280001 5920857
0.55800003 0.24200001 2.3280001 4210243
0.56800002 0.24200001 2.3280001 4407361
0.57900006 0.24300002 2.3310001 1972512
0.588 0.24300002 2.329 2695976
0.59800005 0.24300002 2.3280001 3682100
0.60600001 0.24200001 2.322 4867403
0.68600005 0.25100002 2.3930001 789527
0.69500005 0.25100002 2.3890002 1381662
0.70400006 0.25 2.3850002 4474955
0.71400005 0.25 2.3830001 4277323
0.72300005 0.25 2.3790002 4079944
0.73200005 0.25 2.3740001 4145737
0.74100006 0.24900001 2.3690002 4014151
0.75000006 0.24900001 2.365 3881795
0.75800002 0.24900001 2.3570001 3355451
0.76500005 0.24800001 2.348 6382184
0.77900004 0.23500001 2.21 3947843
0.78200006 0.23300001 2.1890001 2895155
0.78800005 0.23200001 2.1790001 3355705
0.79500002 0.23100001 2.171 3750209
0.97200006 0.27000001 2.5280001 1315607
0.98200005 0.27000001 2.5240002 4999503
0.99100006 0.27000001 2.5190001 4867660
1.001 0.27000001 2.5150001 3618106
1.013 0.27000001 2.516 3091761
1.0250001 0.27000001 2.5150001 4867142
1.0370001 0.27100003 2.5150001 5196108
1.049 0.27100003 2.516 4932421
1.0660001 0.273 2.529 3354157
1.0780001 0.273 2.529 11905438
1.09 0.27400002 2.529 11181450
1.103 0.27400002 2.5320001 3023900
1.1140001 0.27400002 2.529 10525838
1.1220001 0.27400002 2.5200002 11178608
1.659 0.33400002 2.9860001 4342087
1.664 0.333 2.9660001 4473673
1.6720001 0.33200002 2.9520001 4342600
1.6750001 0.33000001 2.9300001 4276294
1.6800001 0.32800001 2.9120002 4407880
1.6890001 0.32800001 2.901 4473929
1.705 0.32800001 2.901 4605259
1.7210001 0.32900003 2.9020002 4407369
1.7400001 0.33000001 2.9070001 3947073
1.7570001 0.33100003 2.9090002 4210501
1.774 0.33100003 2.9100001 4078404
1.7920001 0.33200002 2.9130001 4144197
1.8110001 0.333 2.9170001 4078403
1.8290001 0.33500001 2.9210002 3815230
-1.8090001 0.33200002 2.7630002 6907756
-1.794 0.33200002 2.7650001 6973548
-1.7800001 0.33100003 2.7670002 6841961
-1.766 0.33100003 2.7700002 7170156
-1.7530001 0.33100003 2.7740002 6907754
-1.738 0.33100003 2.776 6841963
-1.7240001 0.33000001 2.779 6841963
-1.71 0.33000001 2.7810001 6908267
-1.6960001 0.33000001 2.7840002 6907754
-1.682 0.32900003 2.7850001 7105133
-1.6680001 0.32900003 2.7880001 7170928
-1.654 0.32900003 2.789 7105646
-1.6400001 0.32800001 2.7920001 7171439
-1.626 0.32800001 2.7930002 7105646
-1.6120001 0.32800001 2.7960002 7236721
-1.598 0.32700002 2.7980001 7302514
-1.585 0.32700002 2.8000002 7302514
-1.572 0.32700002 2.8040001 7236721
-1.5580001 0.32700002 2.8060002 7236978
-1.5450001 0.32700002 2.809 7302769
-1.531 0.32600001 2.8100002 7368307
-1.5170001 0.32600001 2.8110001 7302512
-1.503 0.32500002 2.812 7434098
-1.488 0.32500002 2.812 2368294
-1.473 0.324 2.8110001 2631211
-1.4590001 0.324 2.8110001 7368307
-1.4430001 0.32300001 2.8070002 7499638
-1.4300001 0.32300001 2.8100002 7631224
-1.419 0.32300001 2.8170002 9407385
-1.4150001 0.32500002 2.8360002 9407385
-1.409 0.32600001 2.8530002 9407386
-1.411 0.33000001 2.8860002 9341593
-1.4150001 0.33400002 2.9250002 9341593
-1.424 0.33900002 2.973 9473178
-0.17200001 0.208 1.9610001 5262159
-0.164 0.208 1.9580001 4868177
-0.156 0.20900001 1.9630001 4210250
-0.149 0.20900001 1.9710001 3027007
-0.142 0.21100001 1.983 2829630
-0.13500001 0.21200001 1.9940001 3816264
-0.127 0.21300001 2.003 3355203
-0.119 0.21200001 2.0010002 2829631
-0.030000001 0.10200001 0.95800006 6845588
-0.026000001 0.10200001 0.95700002 7570609
-0.023000002 0.10200001 0.95700002 7637946
-0.019000001 0.10200001 0.96000004 7637431
-0.015000001 0.10200001 0.96000004 7702713
-0.011000001 0.10200001 0.96400005 7439795
-0.0070000002 0.10200001 0.96300006 7439276
-0.0040000002 0.10200001 0.96600002 8755649
0 0.10300001 0.96700007 9675200
0.0040000002 0.104 0.97700006 8556979
0.0080000004 0.105 0.98700005 9345210
0.012 0.10600001 1.001 12304606
0.024 0.105 0.99100006 15790843
0.028000001 0.10600001 0.99600005 13489128
0.050000001 0.094000004 0.88600004 16580350
0.053000003 0.094000004 0.88600004 15857149
0.057000004 0.094000004 0.88800007 13293296
0.061000004 0.095000006 0.89200002 14476799
0.065000005 0.095000006 0.89700001 14345468
0.069000006 0.096000001 0.90000004 14280191
0.072000004 0.096000001 0.90300006 14345471
0.076000005 0.097000003 0.90800005 11779804
0.081 0.097000003 0.91400003 10990286
0.13000001 0.108 1.01 7306655
0.14 0.109 1.023 7899832
0.14 0.10600001 0.99200004 8163008
0.13900001 0.10300001 0.96000004 8755659
0.141 0.101 0.94900006 7901125
0.14500001 0.101 0.94700003 7113668
0.148 0.101 0.94100004 7571907
0.15100001 0.101 0.94000006 7440061
0.155 0.101 0.94000006 7374528
0.15900001 0.101 0.94100004 6586041
0.163 0.1 0.93800002 6059697
0.54300004 0.28300002 2.6330001 2039855
0.55500001 0.28400001 2.6370001 2434612
0.56400001 0.28300002 2.6290002 2763576
0.53300005 0.25300002 2.345 5460825
0.54100001 0.252 2.3360002 4736843
0.54900002 0.252 2.332 5065552
0.55900002 0.252 2.332 4670792
0.56900001 0.252 2.3300002 1972766
0.57900006 0.252 2.3310001 4144191
0.58900005 0.252 2.3310001 4011835
0.59800005 0.252 2.3280001 3946300
0.60700005 0.252 2.325 5262931
0.61600006 0.252 2.3240001 2038820
0.62600005 0.252 2.3240001 1644574
0.64000005 0.25400001 2.3370001 1118232
0.65200001 0.25500003 2.3440001 1776161
0.66700006 0.257 2.3610001 1644577
0.68100005 0.259 2.3760002 789269
0.69300002 0.26000002 2.3820002 2105381
0.70400006 0.26000002 2.3830001 5066063
0.71400005 0.26000002 2.381 4605517
0.72300005 0.26000002 2.378 4408134
0.73200005 0.26000002 2.3740001 4342599
0.74100006 0.259 2.3700001 4144964
0.75000006 0.259 2.365 3816256
0.75900006 0.259 2.3590002 3289909
0.76600003 0.25800002 2.3500001 6381929
1.031 0.33000001 2.9980001 987156
0.78000003 0.24400002 2.2120001 3026995
0.78200006 0.24200001 2.1900001 3026229
0.78900003 0.24100001 2.1800001 3683646
0.79500002 0.24000001 2.171 3946816
0.80200005 0.24000001 2.1630001 5130576
0.97200006 0.28100002 2.5270002 2302758
0.98200005 0.28100002 2.523 5131596
0.99100006 0.28 2.5180001 11381413
1.0020001 0.28100002 2.516 3485740
1.0140001 0.28100002 2.516 4341055
1.026 0.28100002 2.5180001 4933196
1.0380001 0.28200001 2.5170002 4998730
1.049 0.28200001 2.5170002 5130316
1.079 0.28400001 2.5310001 12496543
1.09 0.28400001 2.529 11774100
1.102 0.28500003 2.5280001 9406330
1.113 0.28500003 2.5250001 9735551
1.12 0.28400001 2.5150001 11046507
1.659 0.347 2.9850001 4342087
1.664 0.34600002 2.9660001 4408393
1.6720001 0.34500003 2.9520001 4407880
1.6750001 0.34300002 2.9300001 4276551
1.6960001 0.34200001 2.9120002 4538953
1.7130001 0.34300002 2.914 4341574
1.7300001 0.34300002 2.9150002 4144197
1.7450001 0.34400001 2.914 3289399
1.7620001 0.34500003 2.9160001 4144452
1.7770001 0.34500003 2.914 4078402
1.8150001 0.347 2.9230001 4078404
-1.8090001 0.34500003 2.7630002 7038572
-1.7950001 0.34400001 2.766 7038572
-1.7810001 0.34400001 2.7680001 6907754
-1.7670001 0.34400001 2.7710001 7170410
-1.7540001 0.34400001 2.7750001 6907755
-1.7400001 0.34300002 2.7780001 6907756
-1.7260001 0.34300002 2.7810001 6973549
-1.7120001 0.34300002 2.7830002 6907756
-1.6980001 0.34200001 2.786 7039340
-1.6840001 0.34200001 2.7880001 6973547
-1.6700001 0.34200001 2.7900002 7039342
-1.6560001 0.34200001 2.7930002 6974060
-1.6420001 0.34100002 2.7950001 6973806
-1.628 0.34100002 2.7960002 7039599
-1.6140001 0.34 2.7980001 7170928
-1.6 0.34 2.799 7236721
-1.5860001 0.34 2.802 7236721
-1.5730001 0.33900002 2.8040001 7171183
-1.5600001 0.33900002 2.8080001 7302768
-1.5460001 0.33900002 2.8100002 7368307
-1.5320001 0.33900002 2.8110001 7499892
-1.5190001 0.33800003 2.8130002 7368307
-1.5040001 0.33800003 2.8130002 7302512
-1.4890001 0.33700001 2.8130002 2302757
-1.4740001 0.33700001 2.8110001 2565418
-1.46 0.33600003 2.8110001 7433845
-1.4440001 0.33500001 2.8080001 7433845
-1.4310001 0.33500001 2.8110001 7631224
-1.4210001 0.33600003 2.8200002 9539224
-1.4170001 0.33700001 2.8390002 9473178
-1.4120001 0.33900002 2.858 9473178
-1.411 0.34200001 2.8860002 9341592
-1.416 0.34600002 2.9250002 9342103
-1.424 0.35100001 2.9720001 9276313
-0.17200001 0.21700001 1.9630001 5131605
-0.164 0.21600001 1.9590001 4934226
-0.156 0.21700001 1.9630001 4408142
-0.149 0.21700001 1.9710001 3224641
-0.142 0.21900001 1.9820001 3027006
-0.13500001 0.22000001 1.9930001 2568004
-0.127 0.22100002 2.003 6255505
-0.041000001 0.105 0.94900006 5069942
-0.037 0.104 0.94200003 7111336
-0.033 0.10300001 0.93900007 7835069
-0.030000001 0.10300001 0.93700004 8097985
-0.026000001 0.10300001 0.93400002 7901118
-0.022000002 0.10300001 0.93200004 7835584
-0.018000001 0.10300001 0.93300003 7572667
-0.015000001 0.10300001 0.93500006 7572156
-0.011000001 0.10300001 0.93400002 7440313
-0.0070000002 0.10300001 0.93400002 7308726
-0.003 0.10200001 0.93100005 7374262
0 0.10200001 0.92900002 8820162
0.0040000002 0.10200001 0.92500007 7570857
0.0080000004 0.101 0.92000002 8818868
0.011000001 0.10200001 0.92400002 8029605
0.015000001 0.101 0.91900003 8160158
0.018000001 0.1 0.91100007 11711943
0.046000004 0.097000003 0.88400006 15330031
0.050000001 0.097000003 0.88400006 13884918
0.053000003 0.097000003 0.88400006 14016505
0.057000004 0.098000005 0.88500005 14016251
0.061000004 0.098000005 0.88900006 13950458
0.064000003 0.098000005 0.89100003 13885179
0.068000004 0.099000007 0.89500004 13885179
0.072000004 0.099000007 0.89800006 14082302
0.076000005 0.1 0.90200007 13095408
0.080000006 0.1 0.90500003 12898283
0.13000001 0.10200001 0.92500007 8426689
0.133 0.10200001 0.92200005 7836360
0.13700001 0.10200001 0.92200005 7441864
0.141 0.10200001 0.92200005 7506886
0.14500001 0.10200001 0.92200005 7310795
0.149 0.10200001 0.92200005 7179467
0.15200001 0.10200001 0.92100006 7113675
0.156 0.10200001 0.92200005 6784710
0.16000001 0.10200001 0.92100006 6850245
0.164 0.10300001 0.92200005 6587072
0.16800001 0.10300001 0.92600006 6323902
0.17300001 0.10300001 0.92900002 6455486
0.551 0.287 2.5660002 987673
0.53400004 0.26300001 2.3490002 5328978
0.54200006 0.26200002 2.342 3947070
0.551 0.26200002 2.3380001 5262931
0.56100005 0.26200002 2.3380001 5131344
0.57000005 0.26200002 2.3370001 5065295
0.58000004 0.26200002 2.3360002 4999244
0.59000003 0.26200002 2.335 4801866
0.59900004 0.26200002 2.3340001 4933194
0.60900003 0.26200002 2.3310001 5591126
0.61900002 0.26300001 2.3340001 1973026
0.63100004 0.264 2.3390002 1644318
0.64400005 0.26500002 2.3510001 986644
0.65500003 0.266 2.3540001 1117975
0.66800004 0.26700002 2.3640001 986134
0.68100005 0.26800001 2.3740001 1250075
0.69300002 0.26900002 2.3800001 3750203
0.70400006 0.27000001 2.3820002 5394767
0.71400005 0.27000001 2.381 4934219
0.72300005 0.27000001 2.378 4670790
0.73200005 0.26900002 2.3740001 4604997
0.74200004 0.26900002 2.3710001 4341826
0.75100005 0.26900002 2.3660002 4143678
0.75900006 0.26800001 2.3590002 3815997
0.76600003 0.26800001 2.3500001 6381671
0.78000003 0.25300002 2.21 3158326
0.78300005 0.25100002 2.1920002 3223608
0.78900003 0.25 2.181 3749694
0.79600006 0.25 2.1730001 4407367
0.80300003 0.24900001 2.1660001 5393747
0.97300005 0.29200003 2.5300002 4802634
0.98300004 0.29200003 2.5250001 6248795
0.99300003 0.29100001 2.5210001 12236459
1.0040001 0.29200003 2.5200002 11907497
1.0150001 0.29200003 2.5190001 2104091
1.028 0.29300001 2.5220001 4801605
1.041 0.29300001 2.5250001 5261896
1.0530001 0.29300001 2.5240002 5787980
1.082 0.296 2.536 12036245
1.0910001 0.29500002 2.529 11971481
1.102 0.29500002 2.5270002 9603191
1.1120001 0.29500002 2.523 10260084
1.1190001 0.294 2.5120001 10915951
1.3470001 0.31200001 2.6170001 1776161
1.3560001 0.31200001 2.6090002 1184023
-1.7960001 0.35700002 2.766 6907754
-1.7820001 0.35700002 2.7680001 6907754
-1.7690001 0.35700002 2.7730002 6973549
-1.7540001 0.35600001 2.7750001 6841963
-1.7410001 0.35600001 2.779 6973549
-1.7270001 0.35600001 2.7810001 6907755
-1.7140001 0.35600001 2.786 7039342
-1.7 0.35500002 2.7870002 7039341
-1.6860001 0.35500002 2.7900002 6973547
-1.6720001 0.354 2.7920001 7105135
-1.6580001 0.354 2.7940001 6974060
-1.6430001 0.354 2.7950001 7105646
-1.6290001 0.35300002 2.7970002 7236721
-1.6150001 0.35300002 2.799 7170928
-1.6020001 0.35300002 2.802 7302514
-1.5880001 0.35200003 2.8040001 7170928
-1.5740001 0.35200003 2.8060002 7302514
-1.5610001 0.35200003 2.809 7302514
-1.5480001 0.35200003 2.812 7236721
-1.5330001 0.35100001 2.812 7236977
-1.5200001 0.35100001 2.8140001 7302514
-1.5050001 0.35000002 2.8140001 7368818
-1.4890001 0.35000002 2.812 2368550
-1.473 0.34900001 2.8080001 2565163
-1.4590001 0.34800002 2.8080001 7236466
-1.4430001 0.347 2.8060002 7302259
-1.4300001 0.347 2.809 7433845
-1.4220001 0.34800002 2.8200002 9407637
-1.4180001 0.35000002 2.8400002 9473432
-1.4120001 0.35200003 2.8570001 9473432
-1.411 0.354 2.8850002 9473430
-1.4170001 0.35900003 2.9260001 9407893
-1.4230001 0.36400002 2.97 9210258
-0.17200001 0.22500001 1.9640001 5130577
-0.164 0.22400001 1.9590001 4671059
-0.156 0.22400001 1.9610001 3948622
-0.149 0.22500001 1.9660001 2896199
-0.141 0.22600001 1.9750001 7174551
-0.134 0.22700001 1.9860001 7901888
-0.044000003 0.10600001 0.92900002 7835320
-0.040000003 0.10600001 0.92700005 8099018
-0.037 0.10600001 0.92600006 8493779
-0.033 0.105 0.92400002 8493777
-0.029000001 0.105 0.92000002 8165068
-0.025 0.105 0.91700006 8033738
-0.022000002 0.105 0.91600007 7573957
-0.018000001 0.104 0.91500002 7376837
-0.014 0.104 0.91400003 7311301
-0.011000001 0.104 0.91400003 7113409
-0.0070000002 0.104 0.91400003 6850236
-0.003 0.104 0.91200006 6257070
0 0.104 0.91100007 5795749
0.0040000002 0.104 0.90800005 7373743
0.0080000004 0.10300001 0.90500003 9478861
0.011000001 0.10300001 0.90100002 6056597
0.015000001 0.10200001 0.89400005 5398656
0.018000001 0.10200001 0.89000005 7305114
0.021000002 0.101 0.88500005 7501974
0.025 0.101 0.88400006 10724798
0.028000001 0.101 0.88100004 10923715
0.042000003 0.101 0.88100004 13490415
0.046000004 0.101 0.88300002 13555703
0.050000001 0.101 0.88200003 13555956
0.053000003 0.101 0.88300002 13555700
0.057000004 0.101 0.88300002 13753079
0.060000002 0.101 0.88600004 13950713
0.064000003 0.101 0.88800007 13884920
0.068000004 0.10200001 0.89100003 14016251
0.072000004 0.10200001 0.89400005 13819385
0.076000005 0.10300001 0.89700001 9411256
0.079000004 0.10300001 0.90000004 7766690
0.084000006 0.104 0.91000003 9477307
0.12 0.104 0.90700006 10727376
0.12400001 0.104 0.90700006 8820411
0.127 0.104 0.90500003 6388651
0.13100001 0.104 0.90400004 6916547
0.13500001 0.104 0.90400004 7312081
0.13800001 0.104 0.90500003 7311825
0.142 0.104 0.90600002 7245777
0.14600001 0.104 0.90800005 7180497
0.15000001 0.104 0.90600002 7115219
0.15400001 0.104 0.90700006 6983891
0.15700001 0.104 0.90600002 7048656
0.16100001 0.105 0.90700006 6785484
0.16500001 0.105 0.90800005 6851019
0.16900001 0.105 0.90900004 6587847
0.17200001 0.105 0.90800005 6586820
0.17600001 0.105 0.90800005 6587072
0.18100001 0.105 0.91100007 6784453
0.53000003 0.27500001 2.3730001 2368557
0.53500003 0.273 2.3540001 5460054
0.54300004 0.27200001 2.345 1117973
0.55200005 0.27200001 2.342 5460053
0.56100005 0.27200001 2.3400002 5262930
0.57100004 0.27200001 2.3390002 5196880
0.58100003 0.27200001 2.3370001 4999245
0.59000003 0.27200001 2.3340001 4933452
0.59900004 0.27200001 2.3330002 4867659
0.60900003 0.27200001 2.3330002 5591896
0.62 0.273 2.3360002 4407622
0.63300002 0.27400002 2.3460002 2302504
0.64500004 0.27500001 2.355 1776162
0.65600002 0.27600002 2.3570001 1644575
0.66800004 0.27700001 2.3640001 1381406
0.68000001 0.27800003 2.3720002 3223862
0.69200003 0.27900001 2.3770001 5855580
0.70300001 0.27900001 2.378 5855838
0.71300006 0.27900001 2.3770001 4802637
0.72300005 0.27900001 2.375 3223091
0.73200005 0.27900001 2.3720002 2960176
0.74100006 0.27900001 2.368 2170403
0.75000006 0.27800003 2.3630002 3091762
0.75900006 0.27800003 2.358 3683899
0.76600003 0.27700001 2.3490002 6513000
0.78100002 0.26300001 2.2120001 3157300
0.78400004 0.26100001 2.1930001 3288886
0.79000002 0.26000002 2.1830001 3881023
0.79700005 0.259 2.1750002 4407880
0.80400002 0.25800002 2.1680002 5263449
0.97300005 0.30200002 2.529 4933196
0.98300004 0.30200002 2.526 3157553
0.99500006 0.303 2.5250001 3617584
1.008 0.30400002 2.5300002 6183000
1.021 0.30400002 2.5330002 1643283
1.0380001 0.30600002 2.5450001 4406592
1.0530001 0.30700001 2.5530002 3353386
1.064 0.30700001 2.5500002 6643284
1.075 0.30700001 2.5470002 12103066
1.0840001 0.30700001 2.5400002 11904657
1.0910001 0.30600002 2.5300002 10589829
1.1010001 0.30600002 2.5240002 9340274
1.1110001 0.30500001 2.5190001 11181184
1.1170001 0.30400002 2.5050001 11376496
1.3360001 0.324 2.6210001 2829618
1.3440001 0.32300001 2.6100001 2369324
-1.7820001 0.36900002 2.7680001 6973804
-1.7700001 0.36900002 2.7740002 6973547
-1.756 0.36900002 2.7770002 6907754
-1.743 0.36900002 2.7800002 6973547
-1.7290001 0.36800003 2.7830002 6973547
-1.715 0.36800003 2.786 7039338
-1.7010001 0.36800003 2.7880001 6973545
-1.687 0.36700001 2.7900002 7039340
-1.6720001 0.36700001 2.7920001 7039340
-1.659 0.36700001 2.7950001 6974060
-1.6440001 0.36600003 2.7960002 7171439
-1.631 0.36600003 2.799 7236719
-1.6160001 0.36600003 2.8000002 7170926
-1.603 0.36500001 2.8030002 7171184
-1.5890001 0.36500001 2.8050001 7170928
-1.575 0.36500001 2.8070002 7171184
-1.562 0.36400002 2.8100002 7171439
-1.549 0.36400002 2.812 7236720
-1.534 0.36400002 2.8130002 7368307
-1.5200001 0.36300001 2.8140001 7302512
-1.506 0.36300001 2.8140001 7368306
-1.4890001 0.36200002 2.8110001 2433574
-1.473 0.36100003 2.8070002 2367784
-1.4560001 0.36000001 2.8030002 7433845
-1.439 0.35800001 2.7960002 7433845
-1.427 0.35800001 2.8010001 7302259
-1.4230001 0.36000001 2.8210001 9473428
-1.419 0.36200002 2.8410001 9604248
-1.4130001 0.36400002 2.858 9407639
-1.411 0.36700001 2.8830001 9407639
-1.414 0.37100002 2.9200001 9407637
-1.4200001 0.37600002 2.9620001 9473174
-0.164 0.23200001 1.9610001 4671833
-0.156 0.23200001 1.96 5267838
-0.148 0.23200001 1.9620001 7310521
-0.14 0.23200001 1.9630001 7705543
-0.051000003 0.109 0.91800004 7177644
-0.047000002 0.108 0.91600007 7507651
-0.044000003 0.108 0.91600007 8099790
-0.040000003 0.108 0.91400003 8099534
-0.036000002 0.108 0.91300005 8363476
-0.032000002 0.108 0.91000003 8231634
-0.029000001 0.10700001 0.90800005 8231634
-0.025 0.10700001 0.90500003 8100048
-0.021000002 0.10700001 0.90200007 8100561
-0.018000001 0.10600001 0.90000004 7968977
-0.014 0.10600001 0.89800006 7902669
-0.010000001 0.10600001 0.89800006 7837389
-0.0070000002 0.10600001 0.89700001 7639240
-0.003 0.10600001 0.89600003 6454968
0 0.10600001 0.89400005 5796006
0.0040000002 0.105 0.89300007 5795748
0.0070000002 0.105 0.89000005 6716588
0.011000001 0.105 0.88700002 8756168
0.014 0.104 0.88100004 9545936
0.018000001 0.10300001 0.87600005 9675466
0.021000002 0.10300001 0.87200004 6912161
0.025 0.10300001 0.87000006 6648212
0.028000001 0.10300001 0.86800003 7305115
0.031000001 0.10200001 0.86700004 9740992
0.035 0.10200001 0.86600006 10201288
0.038000003 0.10300001 0.86900002 11911135
0.042000003 0.10300001 0.87300003 13358322
0.046000004 0.104 0.87700003 13752568
0.049000002 0.104 0.87700003 13490937
0.053000003 0.104 0.87800002 13556214
0.056000002 0.104 0.87900007 13490165
0.060000002 0.104 0.88200003 13819127
0.064000003 0.105 0.88400006 13884667
0.068000004 0.105 0.88700002 13885180
0.071000002 0.105 0.88900006 14082558
0.075000003 0.105 0.89100003 9740478
0.079000004 0.10600001 0.89200002 9017529
0.083000004 0.10600001 0.89600003 9872323
0.11000001 0.105 0.88300002 10858951
0.11400001 0.105 0.88400006 9803700
0.11700001 0.105 0.88400006 7108506
0.12100001 0.105 0.88500005 5334939
0.125 0.105 0.88700002 6258365
0.12800001 0.105 0.88700002 6916297
0.132 0.10600001 0.88800007 6916811
0.13600001 0.10600001 0.88800007 6983119
0.14 0.10600001 0.88900006 7179987
0.14300001 0.10600001 0.88900006 7048401
0.147 0.10600001 0.89000005 6982608
0.15100001 0.10600001 0.89000005 7114194
0.155 0.10600001 0.89200002 7114192
0.15900001 0.10700001 0.89300007 6982864
