# .PCD v0.7 - Point Cloud Data file format
VERSION 0.7
FIELDS x y z rgb
SIZE 4 4 4 4
TYPE F F F U
COUNT 1 1 1 1
WIDTH 1203
HEIGHT 1
VIEWPOINT 0 0 0 1 0 0 0
POINTS 1203
DATA ascii
0.24300002 0.048 0.86200005 2760226
0.70500004 0.13100001 2.3590002 4736844
0.71500003 0.13100001 2.358 4342087
0.72500002 0.13100001 2.3560002 4341829
0.73400003 0.13100001 2.3530002 4276036
0.74300003 0.13100001 2.3500001 4210242
0.75200003 0.13100001 2.345 3947070
0.76000005 0.13100001 2.3380001 3683898
1.0140001 0.16800001 2.9970002 7106414
0.77400005 0.12400001 2.2020001 2894640
0.77800006 0.123 2.1850002 2631469
0.78300005 0.123 2.1720002 921102
0.78800005 0.12200001 2.158 2105124
0.79300004 0.12100001 2.1450002 2434089
0.79900002 0.12100001 2.1340001 3157815
0.79200006 0.11800001 2.0900002 3026737
0.78000003 0.115 2.0340002 9869209
1.006 0.14600001 2.5630002 11251641
1.006 0.14400001 2.5340002 2960695
1.0150001 0.14400001 2.526 8620948
1.024 0.14400001 2.5210001 6646903
1.036 0.14400001 2.5200002 5066586
1.0450001 0.14400001 2.5140002 4014153
1.0550001 0.14400001 2.5100002 2302505
1.0630001 0.14300001 2.5010002 3552827
1.0710001 0.14300001 2.4920001 3355448
1.342 0.17200001 2.9900002 2237225
1.3490001 0.17200001 2.9740002 1645087
1.358 0.171 2.9620001 1448476
1.368 0.171 2.9520001 5001555
1.3750001 0.163 2.7900002 6581612
1.368 0.16100001 2.7490001 7040881
1.3710001 0.15900001 2.7260001 6777196
1.3770001 0.15900001 2.7120001 1184279
1.3820001 0.15800001 2.6950002 1382172
1.3800001 0.156 2.664 5330265
1.381 0.155 2.6400001 5265246
1.3840001 0.15400001 2.6210001 5132889
1.6370001 0.17500001 2.9540002 2894641
1.6440001 0.17500001 2.9400001 4605771
1.654 0.17500001 2.9300001 2631981
1.6650001 0.17400001 2.9210002 3421754
1.674 0.17400001 2.9100001 1974821
1.6840001 0.17400001 2.9000001 3750462
1.6930001 0.17300001 2.8900001 4539465
1.7040001 0.17300001 2.881 5262931
1.7180001 0.17300001 2.878 4999759
1.7350001 0.17400001 2.8800001 4539208
1.7550001 0.17400001 2.8880002 4604999
1.774 0.17500001 2.8930001 4670022
1.7930001 0.17600001 2.8980002 4407108
1.8080001 0.17600001 2.8960001 4406850
1.8110001 0.17500001 2.8740001 4341057
1.6150001 0.15100001 2.4530001 7172459
1.6210001 0.15000001 2.4400001 9145987
1.6300001 0.15000001 2.4320002 10462108
1.6400001 0.15000001 2.4260001 12567485
1.6520001 0.15000001 2.4220002 11909555
1.6610001 0.15000001 2.414 12830655
1.674 0.15000001 2.4120002 12830915
-1.8440001 0.18100001 2.7280002 6908014
-1.8340001 0.18100001 2.7370002 7039857
-1.8220001 0.18100001 2.7440002 7105906
-1.8080001 0.18100001 2.7460001 7171186
-1.794 0.18100001 2.7500002 7105906
-1.779 0.18100001 2.7510002 7237492
-1.7650001 0.18000001 2.753 7236979
-1.7500001 0.18000001 2.7540002 6711147
-1.7360001 0.18000001 2.756 4013378
-1.7210001 0.18000001 2.7580001 6974064
-1.7080001 0.18000001 2.7620001 7302772
-1.6940001 0.17900001 2.7630002 7499638
-1.6810001 0.17900001 2.7670002 7499894
-1.6680001 0.17900001 2.7710001 7434357
-1.654 0.17900001 2.7730002 7369078
-1.6400001 0.17900001 2.7750001 7500663
-1.626 0.17900001 2.7770002 7500664
-1.6120001 0.17900001 2.7780001 7631737
-1.5990001 0.178 2.7810001 7565944
-1.585 0.178 2.7830002 7697530
-1.5710001 0.178 2.7840002 7697530
-1.557 0.178 2.786 7697530
-1.5450001 0.178 2.7900002 7631737
-1.531 0.178 2.7910001 7434614
-1.5170001 0.177 2.7930002 4539980
-1.5040001 0.177 2.7960002 4408398
-1.4910001 0.177 2.799 4211277
-1.4760001 0.177 2.7980001 4408141
-1.4610001 0.177 2.7960002 4605520
-1.4440001 0.17600001 2.7910001 4802899
-1.4300001 0.17600001 2.7910001 4934485
-1.419 0.17600001 2.7970002 9671333
-1.4130001 0.178 2.8410001 9606053
-0.148 0.050000001 0.85800004 6381924
-0.14400001 0.050000001 0.85800004 13580363
-0.141 0.050000001 0.85800004 13513540
-0.13700001 0.050000001 0.85800004 13317957
-0.134 0.050000001 0.85800004 13645640
-0.13000001 0.050000001 0.85800004 13580101
-0.127 0.050000001 0.85900003 13711431
-0.123 0.050000001 0.85900003 13711947
-0.12 0.050000001 0.85900003 13580361
-0.116 0.050000001 0.85900003 13710920
-0.11300001 0.050000001 0.85900003 13383752
-0.109 0.050000001 0.85800004 13711436
-0.10600001 0.050000001 0.85800004 13514828
-0.10200001 0.050000001 0.85800004 13318473
-0.099000007 0.050000001 0.85800004 13516109
-0.096000001 0.050000001 0.85800004 13317961
-0.092000008 0.050000001 0.85800004 14047331
-0.089000002 0.050000001 0.85900003 13650008
-0.085000001 0.050000001 0.85900003 12989511
-0.082000002 0.050000001 0.85900003 13781080
-0.078000002 0.050000001 0.85900003 14571110
-0.075000003 0.050000001 0.85900003 13184325
-0.072000004 0.050000001 0.85900003 13447243
-0.068000004 0.050000001 0.85900003 13446984
-0.065000005 0.050000001 0.85900003 13380680
-0.061000004 0.050000001 0.86000001 13511494
-0.058000002 0.050000001 0.86000001 13117251
-0.054000001 0.050000001 0.86000001 13051458
-0.051000003 0.050000001 0.86000001 12919359
-0.048 0.050000001 0.86000001 12985152
-0.044000003 0.050000001 0.86000001 13182788
-0.041000001 0.050000001 0.86000001 13051457
-0.037 0.050000001 0.86000001 13182530
-0.034000002 0.050000001 0.86100006 13116737
-0.031000001 0.050000001 0.86100006 13116737
-0.027000001 0.050000001 0.86100006 12920129
-0.024 0.050000001 0.86100006 13050945
-0.020000001 0.050000001 0.86100006 12788543
-0.017000001 0.050000001 0.86200005 12985152
-0.013 0.050000001 0.86200005 12788797
-0.010000001 0.050000001 0.86200005 12788541
-0.0070000002 0.050000001 0.86200005 12789053
-0.003 0.050000001 0.86200005 13775691
0 0.050000001 0.86200005 13446984
0.0040000002 0.050000001 0.86100006 13380932
0.0070000002 0.050000001 0.86100006 13578311
0.011000001 0.050000001 0.86100006 13513030
0.014 0.050000001 0.86100006 13644616
0.017000001 0.050000001 0.86100006 13118272
0.021000002 0.050000001 0.86100006 12986686
0.024 0.050000001 0.86100006 12789564
0.028000001 0.050000001 0.86100006 12921405
0.031000001 0.050000001 0.86100006 14895194
0.035 0.050000001 0.86100006 13120326
0.038000003 0.050000001 0.86100006 13119810
0.041000001 0.050000001 0.86100006 13251396
0.045000002 0.050000001 0.86100006 14437457
0.048 0.050000001 0.86200005 12858428
0.052000001 0.050000001 0.86200005 13383236
0.055000003 0.050000001 0.86200005 11711392
0.059000004 0.050000001 0.86200005 13025723
0.062000003 0.050000001 0.86200005 13224637
0.065000005 0.050000001 0.86200005 13158592
0.069000006 0.050000001 0.86200005 13025977
0.072000004 0.050000001 0.86200005 13158848
0.076000005 0.050000001 0.86200005 13159618
0.079000004 0.050000001 0.86200005 12896705
0.083000004 0.050000001 0.86200005 12566200
0.086000003 0.050000001 0.86200005 13541516
0.090000004 0.050000001 0.86200005 11423033
0.093000002 0.050000001 0.86200005 12080195
0.097000003 0.050000001 0.86200005 12343624
0.1 0.050000001 0.86200005 12079171
0.104 0.050000001 0.86200005 11092278
0.10700001 0.050000001 0.86200005 12475723
0.11100001 0.050000001 0.86300004 12474441
0.11400001 0.050000001 0.86300004 12080200
0.11800001 0.050000001 0.86300004 11882306
0.12100001 0.050000001 0.86300004 12342857
0.125 0.050000001 0.86300004 12287846
0.12800001 0.051000003 0.86300004 11569780
0.132 0.051000003 0.86300004 11441793
0.13500001 0.051000003 0.86300004 13288891
0.13900001 0.051000003 0.86300004 11841957
0.142 0.051000003 0.86300004 12105129
0.14600001 0.051000003 0.86300004 11644321
0.149 0.051000003 0.86300004 13027001
0.15300001 0.051000003 0.86300004 13158591
0.156 0.051000003 0.86400002 11974318
0.16000001 0.051000003 0.86300004 12434869
0.164 0.051000003 0.86400002 12829372
0.16700001 0.051000003 0.86400002 13223874
0.171 0.051000003 0.86400002 13092545
0.17400001 0.051000003 0.86400002 13158079
0.178 0.051000003 0.86400002 12961214
0.18100001 0.051000003 0.86400002 13158079
0.185 0.051000003 0.86400002 13092545
0.18900001 0.051000003 0.86400002 13223875
0.192 0.051000003 0.86400002 12432795
0.19600001 0.051000003 0.86400002 8611654
0.19900002 0.051000003 0.86400002 13382730
0.20300001 0.051000003 0.86400002 13250887
0.20700002 0.051000003 0.86400002 13513288
0.21100001 0.051000003 0.86500007 13775948
0.21400002 0.051000003 0.86500007 13579083
0.21800001 0.051000003 0.86500007 13447241
0.22100002 0.051000003 0.86500007 13315398
0.22500001 0.051000003 0.86500007 13446728
0.22900002 0.051000003 0.86500007 13315653
0.23300001 0.051000003 0.86500007 13643593
0.23600002 0.051000003 0.86400002 14039634
0.24000001 0.051000003 0.86400002 10886704
0.24300002 0.051000003 0.86300004 2826274
0.24600001 0.051000003 0.86100006 4275518
0.70400006 0.141 2.355 4736585
0.71400005 0.141 2.3540001 4539463
0.72400004 0.141 2.3530002 4342084
0.73300004 0.141 2.3500001 4210498
0.74200004 0.141 2.3460002 4210241
0.75100005 0.141 2.3410001 3881276
0.75800002 0.14 2.3310001 3815481
0.75600004 0.13800001 2.2950001 5855064
1.0070001 0.17900001 2.9770002 5197648
0.76800001 0.134 2.2130001 2500136
0.77000004 0.132 2.1900001 2697261
0.77600002 0.132 2.1790001 2368809
0.78200006 0.13100001 2.1680002 987408
0.79000002 0.13100001 2.1620002 2171428
0.79600006 0.13100001 2.154 2434346
0.80200005 0.13000001 2.1420002 3355448
0.80100006 0.12900001 2.1140001 4934476
0.99600005 0.155 2.5380001 6908526
1.0040001 0.15400001 2.5280001 8488076
1.013 0.15400001 2.5220001 12699088
1.024 0.15400001 2.5190001 4342865
1.0350001 0.15400001 2.5170002 5066839
1.046 0.15400001 2.5150001 6974070
1.0550001 0.15400001 2.5090001 4210249
1.062 0.15400001 2.4990001 3289660
1.3380001 0.18400002 2.9810002 3750727
1.3470001 0.18400002 2.9690001 2698039
1.3570001 0.18400002 2.9590001 2106415
1.3670001 0.18300001 2.95 1515044
1.365 0.17300001 2.7690001 6580588
1.3670001 0.17200001 2.7450001 6712174
1.3700001 0.171 2.7250001 1184793
1.378 0.171 2.7130001 1447195
1.3790001 0.16900001 2.6890001 1777188
1.376 0.16800001 2.6570001 5264988
1.6250001 0.18800001 2.9610002 5328981
1.6330001 0.18800001 2.947 8684427
1.6420001 0.18700001 2.9360001 4671311
1.654 0.18700001 2.9290001 2894900
1.664 0.18700001 2.9200001 1316891
1.6760001 0.18700001 2.9130001 1513500
1.6840001 0.186 2.901 3552570
1.6950001 0.186 2.8920002 4144705
1.7060001 0.186 2.8840001 5197138
1.7210001 0.186 2.8840001 4933196
1.7370001 0.18700001 2.8840001 4472900
1.7590001 0.18700001 2.8930001 4604999
1.7770001 0.18800001 2.8970001 4604999
1.7960001 0.18900001 2.9020002 4670022
1.812 0.18900001 2.9020002 4406850
1.6140001 0.16100001 2.4510002 6383462
1.6200001 0.16100001 2.4380002 7370352
1.6290001 0.16100001 2.4300001 7567216
1.6380001 0.16100001 2.4230001 7764340
1.651 0.16100001 2.4200001 10132892
1.6610001 0.16100001 2.414 10527394
1.6750001 0.16100001 2.414 10527652
1.6860001 0.16100001 2.4090002 9870493
-1.8420001 0.193 2.7250001 6908014
-1.8330001 0.193 2.7360001 7039600
-1.8230001 0.19400001 2.7440002 7105393
-1.8090001 0.19400001 2.7480001 7171186
-1.7960001 0.193 2.7520001 7105135
-1.7820001 0.193 2.7540002 7236721
-1.766 0.193 2.7550001 7236722
-1.751 0.193 2.756 6973806
-1.738 0.193 2.7600002 3947583
-1.723 0.192 2.7610002 7039344
-1.7090001 0.192 2.7630002 7302259
-1.6960001 0.192 2.766 7368565
-1.682 0.192 2.7690001 7368565
-1.669 0.192 2.7720001 7434357
-1.6550001 0.19100001 2.7740002 7434870
-1.6420001 0.19100001 2.7770002 7500663
-1.6270001 0.19100001 2.7780001 7434870
-1.613 0.19100001 2.7800002 7566200
-1.5990001 0.19100001 2.7820001 7631737
-1.5860001 0.19100001 2.7840002 7631737
-1.572 0.19000001 2.786 7631737
-1.5580001 0.19000001 2.7880001 7763323
-1.5450001 0.19000001 2.7910001 7631737
-1.531 0.19000001 2.7920001 7631737
-1.5180001 0.19000001 2.7950001 4803151
-1.506 0.19000001 2.7980001 4474703
-1.4920001 0.18900001 2.799 4408911
-1.4770001 0.18900001 2.7980001 4473934
-1.4580001 0.18800001 2.7900002 4605520
-1.4130001 0.19000001 2.8400002 9737123
-0.15100001 0.054000001 0.85600007 1973279
-0.148 0.054000001 0.85800004 6446692
-0.14400001 0.054000001 0.85800004 13317191
-0.141 0.054000001 0.85900003 13382723
-0.13700001 0.054000001 0.85900003 13515337
-0.134 0.054000001 0.85900003 13645897
-0.13000001 0.054000001 0.85900003 13514309
-0.127 0.054000001 0.85900003 13448773
-0.123 0.054000001 0.85900003 13645895
-0.12 0.054000001 0.85900003 13514568
-0.116 0.054000001 0.85900003 13842506
-0.11300001 0.054000001 0.85900003 13383754
-0.11000001 0.054000001 0.85900003 14309219
-0.10600001 0.054000001 0.85900003 14504803
-0.10300001 0.054000001 0.85900003 13449033
-0.099000007 0.054000001 0.85900003 13712718
-0.096000001 0.054000001 0.85900003 13581646
-0.092000008 0.054000001 0.85900003 14703979
-0.089000002 0.054000001 0.85900003 14439267
-0.085000001 0.054000001 0.85900003 13318476
-0.082000002 0.053000003 0.85900003 14900076
-0.078000002 0.053000003 0.85900003 15031406
-0.075000003 0.053000003 0.85900003 13381704
-0.072000004 0.053000003 0.85900003 13644622
-0.068000004 0.053000003 0.85900003 13710415
-0.065000005 0.054000001 0.86000001 13381191
-0.061000004 0.053000003 0.86000001 13446471
-0.058000002 0.053000003 0.86000001 12985408
-0.054000001 0.053000003 0.86000001 13182531
-0.051000003 0.054000001 0.86100006 12985152
-0.048 0.054000001 0.86100006 12985152
-0.044000003 0.054000001 0.86100006 13116738
-0.041000001 0.054000001 0.86100006 13116738
-0.037 0.053000003 0.86100006 13182531
-0.034000002 0.053000003 0.86100006 13248324
-0.031000001 0.053000003 0.86100006 13182531
-0.027000001 0.053000003 0.86100006 13182531
-0.024 0.053000003 0.86100006 12985922
-0.020000001 0.054000001 0.86200005 12985150
-0.017000001 0.054000001 0.86200005 12854334
-0.013 0.054000001 0.86200005 12919359
-0.010000001 0.054000001 0.86300004 12854336
-0.0070000002 0.054000001 0.86300004 12920127
-0.003 0.054000001 0.86300004 12854334
0 0.054000001 0.86200005 13973068
0.0040000002 0.054000001 0.86200005 14171213
0.0070000002 0.054000001 0.86200005 14434385
0.011000001 0.054000001 0.86200005 13974090
0.014 0.053000003 0.86100006 14039626
0.017000001 0.054000001 0.86200005 13250114
0.021000002 0.054000001 0.86200005 12920893
0.024 0.054000001 0.86200005 12920893
0.028000001 0.054000001 0.86200005 12986430
0.031000001 0.053000003 0.86100006 13117760
0.035 0.053000003 0.86100006 13514309
0.038000003 0.053000003 0.86100006 13383745
0.041000001 0.054000001 0.86100006 13451335
0.045000002 0.054000001 0.86200005 14175819
0.048 0.054000001 0.86200005 13452356
0.052000001 0.054000001 0.86200005 13190466
0.055000003 0.054000001 0.86200005 12962229
0.059000004 0.054000001 0.86200005 12634048
0.062000003 0.054000001 0.86200005 12565683
0.065000005 0.054000001 0.86200005 11908012
0.069000006 0.054000001 0.86200005 12237233
0.072000004 0.054000001 0.86200005 12829883
0.076000005 0.054000001 0.86200005 12502716
0.079000004 0.054000001 0.86200005 11579306
0.083000004 0.054000001 0.86200005 5459781
0.086000003 0.054000001 0.86200005 9401701
0.090000004 0.054000001 0.86200005 12482916
0.093000002 0.054000001 0.86200005 12016201
0.097000003 0.054000001 0.86300004 12409162
0.1 0.054000001 0.86300004 12079941
0.104 0.054000001 0.86300004 10961204
0.10700001 0.054000001 0.86300004 12080197
0.11100001 0.054000001 0.86300004 12146506
0.11400001 0.054000001 0.86300004 12475726
0.11800001 0.054000001 0.86300004 12277318
0.12100001 0.054000001 0.86300004 11619389
0.125 0.054000001 0.86300004 11226168
0.12800001 0.054000001 0.86300004 12148300
0.132 0.054000001 0.86300004 11292994
0.13500001 0.054000001 0.86300004 10438714
0.13900001 0.054000001 0.86400002 11837841
0.142 0.054000001 0.86300004 12961213
0.14600001 0.054000001 0.86400002 13026239
0.149 0.054000001 0.86300004 12105904
0.15300001 0.054000001 0.86400002 13355203
0.156 0.054000001 0.86400002 12828859
0.16000001 0.054000001 0.86400002 12763066
0.164 0.054000001 0.86400002 12828857
0.16700001 0.054000001 0.86400002 12500919
0.171 0.054000001 0.86400002 12961213
0.17400001 0.054000001 0.86400002 13158335
0.178 0.054000001 0.86500007 12697273
0.18100001 0.054000001 0.86400002 12697273
0.185 0.054000001 0.86400002 12894908
0.18900001 0.054000001 0.86400002 12893361
0.192 0.055000003 0.86400002 10311505
0.19600001 0.055000003 0.86400002 12079692
0.2 0.055000003 0.86500007 13710922
0.20300001 0.055000003 0.86500007 13842252
0.20700002 0.055000003 0.86500007 14104912
0.21100001 0.055000003 0.86500007 14169424
0.21400002 0.055000003 0.86500007 13644361
0.21800001 0.055000003 0.86600006 13775947
0.22200002 0.055000003 0.86600006 14038606
0.22500001 0.055000003 0.86600006 13512262
0.22900002 0.055000003 0.86600006 13381189
0.23300001 0.055000003 0.86500007 13775692
0.23600002 0.055000003 0.86500007 14105171
0.24000001 0.055000003 0.86400002 10623018
0.24300002 0.055000003 0.86300004 2891811
0.67900002 0.147 2.3050001 1973279
0.69700003 0.149 2.332 3025967
0.71000004 0.15000001 2.3410001 2433829
0.72000003 0.15000001 2.342 2696743
0.73000002 0.15000001 2.3410001 2630950
0.73900002 0.15000001 2.3360002 2564899
0.74700004 0.149 2.3280001 2564900
0.74500006 0.147 2.2910001 2104864
0.73800004 0.14400001 2.2380002 2039327
0.74100006 0.14300001 2.2180002 1710618
0.75300002 0.142 2.1950002 2105635
0.75800002 0.141 2.184 1513239
0.76300001 0.14 2.1680002 1381912
0.77000004 0.14 2.1620002 1841949
0.78000003 0.14 2.161 1250580
0.78800005 0.14 2.158 1842463
0.79600006 0.14 2.1530001 2697515
0.80300003 0.13900001 2.1440001 3947327
0.80400002 0.13800001 2.1210001 3157808
0.99200004 0.16700001 2.5570002 4211013
0.99300003 0.16500001 2.529 6710632
1.003 0.16500001 2.5240002 4737101
1.0120001 0.16500001 2.5190001 10790832
1.023 0.16500001 2.516 5263197
1.034 0.16500001 2.516 5197655
1.0450001 0.16500001 2.513 9539744
1.054 0.16500001 2.5070002 3618626
1.0610001 0.164 2.4950001 3619392
1.33 0.19800001 2.9940002 7962759
1.335 0.19700001 2.9740002 5462369
1.3440001 0.19600001 2.9620001 5132891
1.355 0.19600001 2.9540002 4869463
1.3640001 0.19500001 2.9440002 4409938
1.3700001 0.19400001 2.9250002 5265504
1.3640001 0.19000001 2.8520002 7370875
1.363 0.18800001 2.822 7567740
1.36 0.186 2.7870002 7436150
1.3610001 0.185 2.7610002 8027780
1.365 0.18400002 2.7420001 4869459
1.3710001 0.18300001 2.7260001 1382166
1.3790001 0.18200001 2.7140002 7304312
1.376 0.18000001 2.6820002 5001557
1.373 0.17900001 2.6500001 5198940
1.6210001 0.20100001 2.9530001 6185320
1.631 0.2 2.9430001 5197660
1.6420001 0.2 2.9350002 2237742
1.6550001 0.2 2.9300001 1513501
1.6660001 0.2 2.9220002 1974821
1.6780001 0.2 2.9160001 1711136
1.687 0.19900002 2.9050002 3486777
1.6960001 0.19900002 2.8930001 4143937
1.7070001 0.19900002 2.8850002 5327954
1.7220001 0.19900002 2.8850002 4933196
1.738 0.19900002 2.8850002 4407364
1.7590001 0.2 2.8930001 4736585
1.7770001 0.20100001 2.8960001 4604999
1.7950001 0.20200001 2.9000001 4538438
1.6170001 0.17300001 2.4550002 8750980
1.6220001 0.17200001 2.4410002 7961721
1.631 0.17200001 2.4330001 7435633
1.6400001 0.17200001 2.4250002 7041132
1.651 0.17200001 2.4200001 9409426
1.6620001 0.17200001 2.4150002 9672344
1.6760001 0.17200001 2.4150002 7896189
-1.84 0.20500001 2.7210002 6841964
-1.8330001 0.20600002 2.7350001 6973807
-1.8220001 0.20600002 2.743 7105393
-1.8090001 0.20600002 2.7470002 7171186
-1.7960001 0.20600002 2.7520001 7302514
-1.7820001 0.20600002 2.7540002 7302514
-1.7670001 0.20500001 2.756 7236976
-1.7520001 0.20500001 2.756 7039599
-1.7390001 0.20500001 2.7600002 4342087
-1.725 0.20500001 2.7630002 7170673
-1.7110001 0.20500001 2.7650001 7302514
-1.697 0.20400001 2.7680001 7368307
-1.6840001 0.20400001 2.7720001 7368565
-1.6700001 0.20400001 2.7730002 7565944
-1.6560001 0.20400001 2.7750001 7368822
-1.6420001 0.20400001 2.7780001 7565944
-1.6270001 0.20300001 2.7780001 7500151
-1.613 0.20300001 2.779 7500407
-1.6 0.20300001 2.7830002 7500664
-1.5870001 0.20300001 2.7850001 7434357
-1.5730001 0.20300001 2.7870002 7763322
-1.559 0.20300001 2.789 7631737
-1.5460001 0.20200001 2.7910001 7697530
-1.5320001 0.20200001 2.7920001 7763323
-1.5190001 0.20200001 2.7950001 4737357
-1.5050001 0.20200001 2.7970002 4606035
-1.4910001 0.20200001 2.7980001 4540495
-1.475 0.20100001 2.7950001 4408398
-1.4530001 0.2 2.779 4539727
-1.4100001 0.20200001 2.8340001 9671332
-0.148 0.057000004 0.85900003 6444894
-0.14400001 0.057000004 0.85900003 13448519
-0.141 0.057000004 0.85900003 13579851
-0.13700001 0.057000004 0.85900003 13514314
-0.134 0.057000004 0.85900003 13383495
-0.13100001 0.057000004 0.86000001 13448775
-0.127 0.057000004 0.86000001 13382983
-0.123 0.057000004 0.85900003 13382982
-0.12 0.057000004 0.85900003 13186119
-0.11700001 0.057000004 0.86000001 15039109
-0.11300001 0.057000004 0.85900003 12732503
-0.11000001 0.057000004 0.85900003 14511223
-0.10600001 0.057000004 0.85900003 11944267
-0.10300001 0.057000004 0.85900003 12600400
-0.099000007 0.057000004 0.85900003 13386322
-0.096000001 0.057000004 0.85900003 13320529
-0.092000008 0.057000004 0.85900003 13651034
-0.089000002 0.057000004 0.85900003 12926541
-0.085000001 0.057000004 0.85900003 12923720
-0.082000002 0.057000004 0.85900003 13057616
-0.079000004 0.057000004 0.86000001 13846619
-0.075000003 0.057000004 0.86000001 13120073
-0.072000004 0.057000004 0.86000001 13317450
-0.068000004 0.057000004 0.86000001 13579853
-0.065000005 0.057000004 0.86000001 13250632
-0.061000004 0.057000004 0.86000001 13315911
-0.058000002 0.057000004 0.86100006 12986178
-0.055000003 0.057000004 0.86100006 12920129
-0.051000003 0.057000004 0.86100006 12920129
-0.048 0.057000004 0.86100006 13050945
-0.044000003 0.057000004 0.86200005 13050945
-0.041000001 0.057000004 0.86200005 13050945
-0.037 0.057000004 0.86200005 13248322
-0.034000002 0.057000004 0.86200005 13182529
-0.031000001 0.057000004 0.86200005 13248322
-0.027000001 0.057000004 0.86200005 13116736
-0.024 0.057000004 0.86200005 12985407
-0.020000001 0.057000004 0.86200005 12985150
-0.017000001 0.057000004 0.86200005 12919613
-0.013 0.057000004 0.86300004 12919614
-0.010000001 0.057000004 0.86300004 12854335
-0.0070000002 0.057000004 0.86300004 13051457
-0.003 0.057000004 0.86300004 12985919
0 0.057000004 0.86200005 13117248
0.0040000002 0.057000004 0.86200005 14039630
0.0070000002 0.057000004 0.86200005 15027548
0.011000001 0.057000004 0.86200005 14764888
0.014 0.057000004 0.86200005 13316418
0.017000001 0.057000004 0.86200005 13249346
0.021000002 0.057000004 0.86200005 13183810
0.024 0.057000004 0.86200005 13512517
0.028000001 0.057000004 0.86200005 12986686
0.031000001 0.057000004 0.86200005 12855356
0.035 0.057000004 0.86200005 14239823
0.038000003 0.057000004 0.86200005 13782088
0.041000001 0.057000004 0.86200005 13586248
0.045000002 0.057000004 0.86200005 14112593
0.048 0.057000004 0.86200005 13784654
0.052000001 0.057000004 0.86200005 13325897
0.055000003 0.057000004 0.86200005 12102034
0.059000004 0.057000004 0.86300004 12563106
0.062000003 0.057000004 0.86200005 13549755
0.065000005 0.057000004 0.86200005 13733010
0.069000006 0.057000004 0.86200005 10763597
0.072000004 0.057000004 0.86200005 11745863
0.076000005 0.057000004 0.86200005 11775123
0.079000004 0.057000004 0.86300004 12893108
0.083000004 0.057000004 0.86300004 9276550
0.086000003 0.057000004 0.86300004 5324857
0.090000004 0.057000004 0.86300004 10852745
0.093000002 0.057000004 0.86300004 11241848
0.097000003 0.057000004 0.86300004 8866361
0.1 0.057000004 0.86400002 13743279
0.104 0.057000004 0.86400002 12696500
0.10700001 0.057000004 0.86400002 9321781
0.11100001 0.057000004 0.86400002 10505794
0.11400001 0.057000004 0.86400002 9917513
0.11800001 0.057000004 0.86400002 6571835
0.12100001 0.057000004 0.86400002 4996915
0.125 0.057000004 0.86400002 11900820
0.12800001 0.058000002 0.86400002 11117462
0.132 0.058000002 0.86400002 13289412
0.13500001 0.058000002 0.86400002 13156791
0.13900001 0.058000002 0.86400002 11906209
0.142 0.058000002 0.86400002 12895672
0.14600001 0.058000002 0.86400002 13092285
0.149 0.058000002 0.86400002 12961213
0.15300001 0.058000002 0.86400002 13223613
0.156 0.058000002 0.86400002 13158331
0.16000001 0.058000002 0.86400002 12565937
0.164 0.058000002 0.86400002 11842213
0.16700001 0.058000002 0.86500007 13223353
0.171 0.058000002 0.86500007 12500142
0.17400001 0.058000002 0.86500007 13025974
0.178 0.058000002 0.86500007 12236970
0.18200001 0.058000002 0.86500007 12698033
0.185 0.058000002 0.86500007 12171172
0.18900001 0.058000002 0.86500007 12628889
0.192 0.058000002 0.86500007 11351100
0.19600001 0.058000002 0.86500007 13780049
0.2 0.058000002 0.86500007 13712716
0.20300001 0.058000002 0.86500007 13712974
0.20700002 0.058000002 0.86500007 13909069
0.21100001 0.058000002 0.86500007 13710665
0.21400002 0.058000002 0.86500007 13448777
0.21800001 0.058000002 0.86600006 13777229
0.22200002 0.058000002 0.86600006 13842252
0.22500001 0.058000002 0.86600006 13381701
0.22900002 0.059000004 0.86600006 13709384
0.23300001 0.059000004 0.86600006 14170192
0.23700002 0.059000004 0.86600006 14039890
0.24000001 0.059000004 0.86500007 10491944
0.24300002 0.059000004 0.86400002 2761253
0.64100003 0.148 2.174 3223859
0.64600003 0.147 2.1600001 3355445
0.65900004 0.148 2.174 3487030
0.70000005 0.149 2.1830001 3683895
0.708 0.149 2.1760001 3487029
0.71400005 0.148 2.1670001 3092271
0.72400004 0.148 2.1680002 3289137
0.73000002 0.148 2.1560001 3420723
0.74000001 0.148 2.1590002 3420725
0.74700004 0.148 2.1500001 2960174
0.75400001 0.147 2.1420002 2828588
0.76300001 0.147 2.141 2762795
0.77400005 0.148 2.1460001 2171169
0.78400004 0.148 2.1470001 1447446
0.79200006 0.148 2.1420002 2829101
0.80100006 0.148 2.1390002 4078913
0.79800004 0.14600001 2.1060002 3026226
0.99100006 0.177 2.5530002 6711143
0.99200004 0.17500001 2.526 7171696
1.0020001 0.17500001 2.5210001 13684699
1.0120001 0.17500001 2.5170002 6315627
1.023 0.17500001 2.516 5000276
1.0350001 0.17500001 2.516 6842485
1.0450001 0.17500001 2.5120001 6644854
1.0550001 0.17500001 2.5080001 3421506
1.0630001 0.17500001 2.4990001 3750723
1.0700001 0.17400001 2.4890001 5263449
1.327 0.21000001 2.9870002 7437440
1.332 0.20900001 2.9660001 7239805
1.3410001 0.208 2.9550002 4804444
1.3520001 0.208 2.947 4278101
1.3610001 0.20700002 2.937 4738652
1.363 0.20600002 2.9090002 4541529
1.36 0.20400001 2.8740001 7041913
1.355 0.20100001 2.8330002 7239035
1.355 0.19900002 2.8040001 1710880
1.3560001 0.19800001 2.779 1316637
1.3610001 0.19700001 2.7610002 1250841
1.368 0.19600001 2.7470002 1250327
1.376 0.19500001 2.7350001 6053717
1.6140001 0.21400002 2.9670002 5330015
1.6190001 0.21300001 2.9490001 5855589
1.631 0.21300001 2.9420002 4868694
1.6420001 0.21300001 2.9340003 3618624
1.6560001 0.21300001 2.9310002 1119257
1.6670001 0.21300001 2.924 1185563
1.6800001 0.21300001 2.9190001 1974566
1.6890001 0.21300001 2.9080002 3552570
1.6990001 0.21200001 2.8980002 4012094
1.7090001 0.21200001 2.8890002 5196368
1.725 0.21200001 2.8880002 4867403
1.7410001 0.21300001 2.8890002 4078655
1.7600001 0.21300001 2.8940001 4736585
1.7800001 0.21400002 2.9000001 4604999
1.7980001 0.215 2.904 4407620
1.6160001 0.18400002 2.4530001 11250601
1.6210001 0.18300001 2.4390001 11514027
1.6300001 0.18300001 2.4310002 10921385
1.6390001 0.18300001 2.4230001 8422012
1.651 0.18300001 2.4190001 9409163
1.6630001 0.18300001 2.4160001 9869463
-1.8390001 0.21700001 2.7190001 6841708
-1.8340001 0.21800001 2.7350001 7104880
-1.8230001 0.21800001 2.743 7170673
-1.8100001 0.21800001 2.7470002 7171186
-1.7980001 0.21800001 2.753 7039600
-1.784 0.21800001 2.756 7236978
-1.7690001 0.21800001 2.7580001 7302771
-1.7550001 0.21800001 2.7600002 6710635
-1.7400001 0.21700001 2.7620001 5263189
-1.7270001 0.21700001 2.7650001 7236465
-1.7130001 0.21700001 2.7670002 7368052
-1.6980001 0.21700001 2.7690001 7433845
-1.6850001 0.21700001 2.7730002 7433845
-1.6710001 0.21700001 2.7750001 7368565
-1.6570001 0.21600001 2.776 7500151
-1.6430001 0.21600001 2.7780001 7500151
-1.628 0.21600001 2.779 7500151
-1.6140001 0.215 2.7800002 7565944
-1.6010001 0.215 2.7830002 7697786
-1.5870001 0.215 2.7850001 7632249
-1.5730001 0.215 2.7870002 7566456
-1.5600001 0.215 2.7900002 7565944
-1.5470001 0.215 2.7920001 7500151
-1.5330001 0.21400002 2.7930002 7434358
-1.5190001 0.21400002 2.7950001 4802896
-1.506 0.21400002 2.7980001 4606036
-1.4920001 0.21400002 2.7980001 4408909
-1.4760001 0.21300001 2.7960002 4408399
-1.4530001 0.21200001 2.779 4539983
-1.4070001 0.21400002 2.8270001 9671330
-1.414 0.21700001 2.8710001 9671330
-0.148 0.061000004 0.85900003 6379100
-0.14500001 0.061000004 0.86000001 13317959
-0.141 0.061000004 0.86000001 13776460
-0.13800001 0.061000004 0.86000001 13317704
-0.134 0.061000004 0.86000001 13514055
-0.13100001 0.061000004 0.86000001 13448261
-0.127 0.061000004 0.86000001 13448261
-0.12400001 0.061000004 0.86000001 13382469
-0.12 0.061000004 0.86000001 13580361
-0.11700001 0.061000004 0.86000001 15440031
-0.11300001 0.061000004 0.86000001 12078686
-0.11000001 0.061000004 0.86000001 14841990
-0.10600001 0.061000004 0.86000001 12866915
-0.10300001 0.061000004 0.86000001 12867169
-0.099000007 0.061000004 0.86000001 13909842
-0.096000001 0.061000004 0.86000001 13253453
-0.092000008 0.060000002 0.86000001 14701155
-0.089000002 0.060000002 0.86000001 14109791
-0.085000001 0.060000002 0.86000001 13120070
-0.082000002 0.060000002 0.86000001 14438497
-0.079000004 0.060000002 0.86000001 14437214
-0.075000003 0.060000002 0.86000001 13447751
-0.072000004 0.060000002 0.86000001 13316424
-0.068000004 0.060000002 0.86000001 13316681
-0.065000005 0.060000002 0.86000001 13512775
-0.061000004 0.060000002 0.86100006 13709641
-0.058000002 0.060000002 0.86100006 12920128
-0.055000003 0.060000002 0.86100006 13051715
-0.051000003 0.060000002 0.86200005 12985922
-0.048 0.060000002 0.86200005 12985152
-0.044000003 0.060000002 0.86200005 12985152
-0.041000001 0.060000002 0.86200005 12985150
-0.037 0.060000002 0.86200005 13116737
-0.034000002 0.060000002 0.86200005 13248324
-0.031000001 0.060000002 0.86200005 13182531
-0.027000001 0.060000002 0.86200005 13116738
-0.024 0.060000002 0.86200005 13116738
-0.020000001 0.060000002 0.86200005 12985151
-0.017000001 0.060000002 0.86300004 12985151
-0.013 0.060000002 0.86300004 12985151
-0.010000001 0.060000002 0.86300004 12919359
-0.0070000002 0.060000002 0.86300004 13051457
-0.003 0.060000002 0.86300004 13051713
0 0.060000002 0.86300004 13183299
0.0040000002 0.060000002 0.86300004 13314628
0.0070000002 0.060000002 0.86300004 13117249
0.011000001 0.060000002 0.86200005 13117506
0.014 0.060000002 0.86200005 13117506
0.017000001 0.060000002 0.86300004 13776202
0.021000002 0.060000002 0.86300004 13447748
0.024 0.060000002 0.86300004 13710407
0.028000001 0.060000002 0.86300004 14237008
0.031000001 0.060000002 0.86300004 13710663
0.035 0.060000002 0.86300004 13448516
0.038000003 0.061000004 0.86300004 14767194
0.041000001 0.061000004 0.86300004 14112590
0.045000002 0.061000004 0.86300004 14507089
0.048 0.061000004 0.86300004 14639192
0.052000001 0.061000004 0.86300004 12471361
0.055000003 0.061000004 0.86300004 13414286
0.059000004 0.061000004 0.86300004 13087641
0.062000003 0.061000004 0.86300004 10962507
0.066 0.061000004 0.86300004 13055050
0.069000006 0.061000004 0.86300004 12529733
0.072000004 0.061000004 0.86300004 13058390
0.076000005 0.061000004 0.86300004 12497827
0.079000004 0.061000004 0.86300004 12103845
0.083000004 0.061000004 0.86300004 12498860
0.086000003 0.061000004 0.86300004 13090485
0.090000004 0.061000004 0.86300004 12498861
0.093000002 0.061000004 0.86300004 12563880
0.097000003 0.061000004 0.86400002 12893618
0.1 0.061000004 0.86400002 12367018
0.104 0.061000004 0.86400002 13419708
0.10700001 0.061000004 0.86400002 12102563
0.11100001 0.061000004 0.86400002 11310473
0.11400001 0.061000004 0.86400002 12168868
0.11800001 0.061000004 0.86400002 9274493
0.12100001 0.061000004 0.86400002 12169897
0.125 0.061000004 0.86500007 13157564
0.12800001 0.061000004 0.86400002 13026492
0.132 0.061000004 0.86400002 11578523
0.13500001 0.061000004 0.86400002 13158588
0.13900001 0.061000004 0.86400002 11381660
0.142 0.061000004 0.86400002 12105643
0.14600001 0.061000004 0.86400002 13026749
0.149 0.061000004 0.86400002 12960958
0.15300001 0.061000004 0.86400002 12763316
0.15700001 0.061000004 0.86400002 11711137
0.16000001 0.061000004 0.86400002 12170662
0.164 0.061000004 0.86500007 12499109
0.16700001 0.061000004 0.86500007 12368036
0.171 0.061000004 0.86500007 13421242
0.17500001 0.061000004 0.86500007 10380639
0.178 0.061000004 0.86500007 13219742
0.18200001 0.061000004 0.86500007 13486004
0.185 0.062000003 0.86500007 11752791
0.18900001 0.062000003 0.86500007 11941954
0.192 0.062000003 0.86500007 12463166
0.19600001 0.062000003 0.86500007 13385549
0.2 0.062000003 0.86500007 15555174
0.20300001 0.062000003 0.86500007 14896733
0.20700002 0.062000003 0.86600006 13250629
0.21100001 0.062000003 0.86500007 13645127
0.215 0.062000003 0.86600006 14039374
0.21800001 0.062000003 0.86600006 14105167
0.22200002 0.062000003 0.86600006 13907533
0.22600001 0.062000003 0.86600006 13446982
0.22900002 0.062000003 0.86700004 13776202
0.23300001 0.062000003 0.86600006 14105167
0.23700002 0.062000003 0.86600006 14105425
0.24000001 0.062000003 0.86500007 11412789
0.24300002 0.062000003 0.86400002 4209725
0.62900001 0.15400001 2.1340001 3750460
0.63700002 0.15400001 2.1300001 3553082
0.64500004 0.15400001 2.1270001 3487288
0.65400004 0.15400001 2.1260002 3553081
0.66600001 0.15400001 2.1330001 3355445
0.67600006 0.15400001 2.135 3355445
0.68600005 0.155 2.1370001 3158066
0.69700003 0.155 2.1420002 3092532
0.70400006 0.155 2.1360002 2960946
0.71200001 0.155 2.131 2960946
0.72300005 0.155 2.135 2895153
0.72900003 0.155 2.125 2894896
0.73600006 0.15400001 2.118 2894894
0.74400002 0.15400001 2.1140001 2763308
0.75400001 0.15400001 2.1160002 2434341
0.76400006 0.155 2.1160002 2565927
0.77700001 0.155 2.1260002 2631722
0.78700006 0.156 2.128 2960430
0.79400003 0.155 2.1200001 4276292
0.78700006 0.15200001 2.0770001 3157554
0.98900002 0.18700001 2.549 5460820
0.99000007 0.185 2.5210001 4671309
1.001 0.185 2.5180001 11579325
1.011 0.185 2.5140002 4671315
1.0220001 0.185 2.513 5000529
1.033 0.186 2.5120001 8881816
1.044 0.186 2.5100002 3816774
1.054 0.186 2.5050001 3749958
1.0610001 0.185 2.4940002 4605520
1.3240001 0.22200002 2.9800003 3882573
1.3290001 0.22100002 2.9590001 3883086
1.3380001 0.22000001 2.9480002 5856617
1.3470001 0.22000001 2.9360001 2896446
1.3540001 0.21900001 2.9210002 2830396
1.355 0.21700001 2.8920002 2830139
1.3510001 0.21400002 2.8540001 2238253
1.348 0.21200001 2.8180001 2171947
1.35 0.21000001 2.7940001 1579293
1.355 0.20900001 2.776 1052950
1.3640001 0.20900001 2.766 1184533
1.373 0.208 2.756 7830131
1.6100001 0.22700001 2.9590001 5329759
1.6190001 0.22600001 2.947 5263966
1.631 0.22600001 2.9420002 5000794
1.6430001 0.22600001 2.9360001 3816774
1.6570001 0.22600001 2.9320002 1447708
1.669 0.22600001 2.9260001 1185562
1.682 0.22600001 2.9220002 2435116
1.692 0.22600001 2.9130001 3552571
1.702 0.22500001 2.9020002 4012864
1.7130001 0.22500001 2.8940001 4999759
1.7260001 0.22500001 2.8890002 4933195
1.7400001 0.22500001 2.8860002 3683899
1.7580001 0.22600001 2.891 4736585
1.7800001 0.22700001 2.9000001 4538693
1.7980001 0.22800002 2.9030001 4472645
1.8140001 0.22800002 2.9020002 4472643
1.6190001 0.19500001 2.4560001 5724504
1.623 0.19400001 2.4410002 5658197
1.6320001 0.19400001 2.4330001 7105632
1.641 0.19400001 2.4260001 8224366
1.6520001 0.19400001 2.421 9408903
1.664 0.19400001 2.4170001 9672335
-1.8410001 0.23 2.7210002 6907501
-1.835 0.23100001 2.7360001 7039087
-1.8240001 0.23100001 2.7440002 7170673
-1.8100001 0.23100001 2.7470002 7039600
-1.7980001 0.23100001 2.753 7039600
-1.7830001 0.23100001 2.7550001 7040112
-1.7700001 0.23 2.7580001 7105646
-1.7550001 0.23 2.7590001 6316133
-1.7410001 0.23 2.7630002 6053218
-1.728 0.23 2.766 7302259
-1.7140001 0.23 2.7680001 7368052
-1.7 0.22900002 2.7710001 7368052
-1.6860001 0.22900002 2.7740002 7368565
-1.6720001 0.22900002 2.776 7368565
-1.6580001 0.22900002 2.7770002 7500151
-1.6430001 0.22800002 2.7780001 7500407
-1.6300001 0.22800002 2.7810001 7434870
-1.6150001 0.22800002 2.7820001 7500663
-1.6020001 0.22800002 2.7840002 7434358
-1.5880001 0.22700001 2.786 7434358
-1.575 0.22700001 2.789 7565944
-1.5610001 0.22700001 2.7910001 7566457
-1.5470001 0.22700001 2.7920001 7565943
-1.5330001 0.22700001 2.7940001 7105392
-1.521 0.22700001 2.7970002 2894900
-1.508 0.22600001 2.8000002 2894902
-1.493 0.22600001 2.8000002 2829109
-1.4790001 0.22600001 2.8000002 3158071
-1.46 0.22500001 2.7910001 2894645
-1.434 0.223 2.7680001 3026231
-1.416 0.22200002 2.7620001 2829111
-1.4000001 0.22100002 2.7580001 6579058
-1.4000001 0.223 2.7840002 9737125
-1.404 0.22500001 2.8210001 9605539
-1.4080001 0.22800002 2.858 9671332
-1.4100001 0.23 2.891 9540514
-0.148 0.064000003 0.86000001 5195085
-0.14500001 0.064000003 0.86000001 13448264
-0.141 0.064000003 0.86000001 13645643
-0.13800001 0.064000003 0.86100006 13448521
-0.134 0.064000003 0.86100006 13580618
-0.13100001 0.064000003 0.86100006 13514569
-0.127 0.064000003 0.86000001 13448777
-0.12400001 0.064000003 0.86000001 13317705
-0.12 0.064000003 0.86100006 13251912
-0.11700001 0.064000003 0.86100006 13517908
-0.11300001 0.064000003 0.86100006 12602455
-0.11000001 0.064000003 0.86100006 13590890
-0.10600001 0.064000003 0.86100006 12076624
-0.10300001 0.064000003 0.86000001 13519964
-0.099000007 0.064000003 0.86000001 13778257
-0.096000001 0.064000003 0.86000001 13316936
-0.092000008 0.064000003 0.86000001 13580108
-0.089000002 0.064000003 0.86000001 13842769
-0.085000001 0.064000003 0.86000001 13645901
-0.082000002 0.064000003 0.86000001 13580108
-0.079000004 0.064000003 0.86000001 13842768
-0.075000003 0.064000003 0.86000001 13513803
-0.072000004 0.064000003 0.86100006 13513287
-0.068000004 0.064000003 0.86100006 13513288
-0.065000005 0.064000003 0.86100006 13578568
-0.061000004 0.064000003 0.86100006 13446984
-0.058000002 0.064000003 0.86100006 12985663
-0.055000003 0.064000003 0.86200005 12919614
-0.051000003 0.064000003 0.86200005 13182530
-0.048 0.064000003 0.86200005 12985151
-0.044000003 0.064000003 0.86300004 12985664
-0.041000001 0.064000003 0.86300004 13051458
-0.037 0.064000003 0.86300004 13051458
-0.034000002 0.064000003 0.86300004 13116738
-0.031000001 0.064000003 0.86300004 13050944
-0.027000001 0.064000003 0.86300004 13116994
-0.024 0.064000003 0.86300004 13182531
-0.020000001 0.064000003 0.86300004 12985152
-0.017000001 0.064000003 0.86300004 12985152
-0.013 0.064000003 0.86400002 12985410
-0.010000001 0.064000003 0.86400002 12919872
-0.0070000002 0.064000003 0.86400002 13182531
-0.003 0.064000003 0.86400002 13248322
0 0.064000003 0.86300004 13445703
0.0040000002 0.064000003 0.86300004 13315396
0.0070000002 0.064000003 0.86300004 13378631
0.011000001 0.064000003 0.86300004 13312837
0.014 0.064000003 0.86300004 13052736
0.017000001 0.064000003 0.86300004 13776714
0.021000002 0.064000003 0.86300004 13644873
0.024 0.064000003 0.86300004 13777227
0.028000001 0.064000003 0.86300004 13908814
0.031000001 0.064000003 0.86300004 13448518
0.035 0.064000003 0.86300004 13513799
0.038000003 0.064000003 0.86300004 13449032
0.041000001 0.064000003 0.86300004 12790333
0.045000002 0.064000003 0.86300004 12725308
0.048 0.064000003 0.86300004 12856384
0.052000001 0.064000003 0.86300004 12792128
0.055000003 0.064000003 0.86300004 12921662
0.059000004 0.064000003 0.86300004 12725568
0.062000003 0.064000003 0.86300004 12857411
0.066 0.064000003 0.86300004 12791102
0.069000006 0.064000003 0.86300004 12725563
0.073000006 0.064000003 0.86400002 12465476
0.076000005 0.064000003 0.86400002 11693671
0.080000006 0.064000003 0.86400002 13807779
0.083000004 0.064000003 0.86400002 12103585
0.086000003 0.064000003 0.86400002 13351859
0.090000004 0.064000003 0.86400002 13026748
0.093000002 0.064000003 0.86400002 13484474
0.097000003 0.064000003 0.86400002 12827056
0.1 0.064000003 0.86400002 12103590
0.104 0.064000003 0.86500007 12827825
0.10700001 0.064000003 0.86500007 12761770
0.11100001 0.064000003 0.86500007 13485757
0.11400001 0.064000003 0.86500007 13616833
0.11800001 0.064000003 0.86500007 13486529
0.12100001 0.064000003 0.86500007 13026229
0.125 0.064000003 0.86500007 12828853
0.12800001 0.065000005 0.86500007 11971744
0.132 0.065000005 0.86500007 10170168
0.13500001 0.065000005 0.86500007 13543065
0.13900001 0.065000005 0.86500007 12499109
0.14300001 0.065000005 0.86500007 12104352
0.14600001 0.065000005 0.86500007 13157560
0.15000001 0.065000005 0.86500007 13091769
0.15300001 0.065000005 0.86400002 13223096
0.15700001 0.065000005 0.86400002 11176831
0.16000001 0.065000005 0.86500007 12473432
0.164 0.065000005 0.86500007 13419184
0.16700001 0.065000005 0.86500007 11515038
0.171 0.065000005 0.86600006 13288373
0.17500001 0.065000005 0.86600006 11098197
0.178 0.065000005 0.86600006 12727621
0.18200001 0.065000005 0.86600006 13582163
0.186 0.065000005 0.86600006 12528702
0.18900001 0.065000005 0.86600006 12462394
0.193 0.065000005 0.86600006 12462909
0.19600001 0.065000005 0.86600006 12528447
0.2 0.065000005 0.86600006 12791105
0.20400001 0.065000005 0.86600006 13580106
0.20700002 0.065000005 0.86600006 13776460
0.21100001 0.065000005 0.86600006 13908045
0.215 0.065000005 0.86600006 14039374
0.21800001 0.065000005 0.86600006 14039375
0.22200002 0.066 0.86700004 13973068
0.22600001 0.066 0.86700004 13512262
0.23 0.066 0.86700004 14038861
0.23300001 0.066 0.86700004 14038861
0.23700002 0.066 0.86600006 13777229
0.24000001 0.066 0.86500007 10755885
0.24400002 0.066 0.86500007 3683897
0.61300004 0.16000001 2.1090002 3750460
0.61700004 0.15900001 2.092 3750462
0.62800002 0.16000001 2.0990002 3816255
0.634 0.15900001 2.0900002 3947841
0.64300001 0.15900001 2.089 4013375
0.648 0.15900001 2.0770001 4210754
0.65900004 0.15900001 2.0830002 3882048
0.66900003 0.16000001 2.085 4079425
0.68200004 0.16100001 2.0970001 4013375
0.69100004 0.16100001 2.095 4144962
0.69900006 0.16100001 2.0930002 4013634
0.708 0.16100001 2.0910001 4211013
0.71900004 0.16100001 2.095 3947842
0.72700006 0.16100001 2.092 3947841
0.73600006 0.16100001 2.0900002 4013121
0.74500006 0.16100001 2.0900002 3486777
0.75300002 0.16100001 2.0870001 3157555
0.76300001 0.16100001 2.0870001 3091762
0.76800001 0.16000001 2.075 2828590
0.77400005 0.16000001 2.066 2894638
0.76900005 0.15700001 2.029 5921115
0.77000004 0.156 2.0080001 2236964
0.99100006 0.19600001 2.523 2303017
1.001 0.19600001 2.5180001 4671311
1.01 0.19600001 2.513 5263966
1.021 0.19600001 2.5100002 4079178
1.0320001 0.19600001 2.5080001 6842482
1.0420001 0.19600001 2.5050001 3487039
1.052 0.19600001 2.5010002 3881795
1.0610001 0.19500001 2.493 4999765
1.3210001 0.23400001 2.973 4277069
1.327 0.23300001 2.9530001 4409168
1.3360001 0.23200001 2.9420002 4738135
1.3440001 0.23100001 2.9280002 3355969
1.348 0.23 2.9060001 2302767
1.3470001 0.22800002 2.8750002 2105388
1.3430001 0.22500001 2.8370001 1973802
1.3460001 0.22400001 2.8130002 1381662
1.3510001 0.223 2.7960002 1381915
1.358 0.22200002 2.7820001 2435120
1.3700001 0.22200002 2.7780001 7435386
1.386 0.22200002 2.7810001 6514284
1.605 0.23900001 2.95 5263966
1.6190001 0.23900001 2.9480002 5000794
1.6330001 0.23900001 2.9440002 5066330
1.6450001 0.23900001 2.9380002 4013639
1.6580001 0.23900001 2.9330001 1184793
1.6700001 0.23900001 2.927 1382172
1.682 0.23900001 2.9220002 2566189
1.6930001 0.23900001 2.9130001 3881793
1.702 0.23800001 2.9020002 4736587
1.7140001 0.23800001 2.8950002 4933966
1.7270001 0.23800001 2.891 4801609
1.743 0.23800001 2.891 3354931
1.761 0.23900001 2.8940001 4802378
1.7820001 0.24000001 2.9030001 4604231
1.802 0.24100001 2.9090002 4538436
1.8180001 0.24200001 2.9080002 4276033
1.626 0.20600002 2.4450002 5790042
1.6340001 0.20500001 2.4350002 1907997
1.6440001 0.20500001 2.4290001 7698283
1.6550001 0.20500001 2.424 9737613
-1.84 0.24200001 2.72 7039343
-1.8340001 0.24300002 2.7350001 7104880
-1.8240001 0.24300002 2.7440002 7236466
-1.8100001 0.24300002 2.7460001 7170673
-1.7980001 0.24300002 2.7520001 7302258
-1.7850001 0.24300002 2.756 7105392
-1.7700001 0.24300002 2.7580001 7171186
-1.756 0.24300002 2.7600002 4012864
-1.7420001 0.24200001 2.7630002 6710635
-1.728 0.24200001 2.766 7236466
-1.7140001 0.24200001 2.7680001 7368052
-1.7 0.24200001 2.7710001 7302259
-1.687 0.24200001 2.7740002 7499638
-1.6730001 0.24100001 2.776 7499638
-1.659 0.24100001 2.7780001 7499638
-1.6450001 0.24100001 2.7800002 7499893
-1.631 0.24100001 2.7830002 7500150
-1.6170001 0.24000001 2.7840002 7500150
-1.6040001 0.24000001 2.7870002 7500150
-1.5890001 0.24000001 2.7880001 7500150
-1.5760001 0.24000001 2.7900002 7631736
-1.562 0.24000001 2.7920001 7631736
-1.5480001 0.23900001 2.7930002 7565943
-1.5350001 0.23900001 2.7960002 7631990
-1.521 0.23900001 2.7980001 7500406
-1.5090001 0.23900001 2.8010001 7566198
-1.4950001 0.23900001 2.8030002 6974060
-1.4810001 0.23800001 2.8040001 1907488
-1.465 0.23800001 2.8000002 4210244
-1.4440001 0.23600002 2.7880001 7499899
-1.4280001 0.23600002 2.7840002 7697280
-1.411 0.23500001 2.779 8618383
-1.4050001 0.23600002 2.7940001 9671585
-1.4050001 0.23800001 2.822 9540000
-1.406 0.24000001 2.8530002 9539744
-1.4080001 0.24300002 2.8870001 9605537
-0.15100001 0.067000002 0.85500002 2170405
-0.148 0.068000004 0.86000001 8024185
-0.14500001 0.068000004 0.86100006 13513537
-0.141 0.068000004 0.86100006 13513796
-0.13800001 0.068000004 0.86100006 13645638
-0.134 0.068000004 0.86100006 13580357
-0.13100001 0.068000004 0.86100006 13776709
-0.127 0.068000004 0.86100006 13645894
-0.12400001 0.068000004 0.86100006 13645893
-0.12 0.068000004 0.86100006 13646152
-0.11700001 0.068000004 0.86100006 13645893
-0.11300001 0.068000004 0.86100006 13712974
-0.11000001 0.068000004 0.86100006 13253706
-0.10600001 0.068000004 0.86100006 13252425
-0.10300001 0.068000004 0.86100006 13646670
-0.099000007 0.067000002 0.86100006 13515084
-0.096000001 0.067000002 0.86100006 13580107
-0.093000002 0.067000002 0.86100006 13513288
-0.089000002 0.067000002 0.86100006 13447495
-0.086000003 0.067000002 0.86100006 13710156
-0.082000002 0.067000002 0.86100006 13775947
-0.079000004 0.067000002 0.86100006 13512775
-0.075000003 0.067000002 0.86100006 13710154
-0.072000004 0.067000002 0.86100006 13710669
-0.068000004 0.067000002 0.86200005 13644876
-0.065000005 0.067000002 0.86200005 13644363
-0.062000003 0.067000002 0.86200005 13381191
-0.058000002 0.067000002 0.86200005 12920128
-0.055000003 0.067000002 0.86200005 12919872
-0.051000003 0.067000002 0.86300004 13116737
-0.048 0.067000002 0.86300004 12985151
-0.044000003 0.067000002 0.86300004 13050944
-0.041000001 0.067000002 0.86300004 12854336
-0.037 0.067000002 0.86300004 12854336
-0.034000002 0.067000002 0.86300004 13182531
-0.031000001 0.067000002 0.86300004 13248324
-0.027000001 0.067000002 0.86300004 12985920
-0.024 0.067000002 0.86300004 13116736
-0.020000001 0.067000002 0.86300004 13182531
-0.017000001 0.067000002 0.86400002 13050947
-0.013 0.067000002 0.86400002 12984896
-0.010000001 0.067000002 0.86400002 12984639
-0.0070000002 0.067000002 0.86400002 13182531
-0.003 0.067000002 0.86400002 13182531
0 0.067000002 0.86400002 13906253
0.0040000002 0.067000002 0.86400002 13708875
0.0070000002 0.067000002 0.86300004 13445702
0.011000001 0.067000002 0.86400002 13051200
0.014 0.067000002 0.86400002 13248578
0.017000001 0.067000002 0.86400002 13841740
0.021000002 0.067000002 0.86400002 13974861
0.024 0.067000002 0.86400002 15686246
0.028000001 0.067000002 0.86300004 13711689
0.031000001 0.067000002 0.86300004 13316420
0.035 0.067000002 0.86300004 13514056
0.038000003 0.067000002 0.86300004 13644873
0.041000001 0.067000002 0.86300004 12987197
0.045000002 0.067000002 0.86300004 13118528
0.048 0.067000002 0.86300004 13053248
0.052000001 0.068000004 0.86400002 13053249
0.055000003 0.067000002 0.86300004 13184322
0.059000004 0.067000002 0.86300004 13184322
0.062000003 0.068000004 0.86400002 13119299
0.066 0.068000004 0.86400002 12987713
0.069000006 0.068000004 0.86400002 12987713
0.073000006 0.068000004 0.86400002 13053249
0.076000005 0.068000004 0.86400002 13185092
0.080000006 0.068000004 0.86400002 13185860
0.083000004 0.068000004 0.86400002 12988226
0.086000003 0.068000004 0.86400002 13285802
0.090000004 0.068000004 0.86400002 11973534
0.093000002 0.068000004 0.86400002 12301736
